# .PCD v0.7 - Point Cloud Data file format
VERSION 0.7
FIELDS x y z
SIZE 4 4 4
TYPE F F F
COUNT 1 1 1
WIDTH 1742
HEIGHT 1
VIEWPOINT 0 0 0 1 0 0 0
POINTS 1742
DATA ascii
-2.5959001 1.6400001 -2.0764499
-2.5137801 1.6400001 -2.07604
-2.4437799 1.6400001 -2.0799599
-2.3561401 1.6400001 -2.0685
-2.2911899 1.6400001 -2.0709
-2.22157 1.6400001 -2.0636501
-2.16482 1.6400001 -2.0667801
-2.1107199 1.6400001 -2.0685201
-2.0527501 1.6400001 -2.0643001
-2.00056 1.6400001 -2.0676999
-1.948548 1.6400001 -2.0627599
-1.896266 1.6400001 -2.0575399
-1.8525751 1.6400001 -2.05637
-1.805562 1.6400001 -2.05042
-1.762938 1.6400001 -2.04949
-1.723039 1.6400001 -2.04652
-1.688357 1.6400001 -2.0511699
-1.64869 1.6400001 -2.04827
-1.6133621 1.6400001 -2.0465
-1.576719 1.6400001 -2.04177
-1.548147 1.6400001 -2.05088
-1.5103071 1.6400001 -2.04339
-1.48068 1.6400001 -2.0441699
-1.448911 1.6400001 -2.0440798
-1.416836 1.6400001 -2.0357699
-1.3872681 1.6400001 -2.0383801
-1.358726 1.6400001 -2.03722
-1.3309619 1.6400001 -2.0388
-1.321915 1.6400001 -2.1022
-1.299346 1.6400001 -2.1233001
-1.272539 1.6400001 -2.13113
-1.243541 1.6400001 -2.1321001
-1.215435 1.6400001 -2.1398201
-1.185015 1.6400001 -2.1302099
-1.156639 1.6400001 -2.1301999
-1.12541 1.6400001 -2.1142101
-1.0959417 1.6400001 -2.10007
-1.0687284 1.6400001 -2.0991001
-1.0419185 1.6400001 -2.0819399
-1.0147667 1.6400001 -2.0829
-0.98904479 1.6400001 -2.08569
-0.96124482 1.6400001 -2.0680499
-0.93768692 1.6400001 -2.03738
-0.9120369 1.6400001 -2.02473
-0.88908899 1.6400001 -2.0001202
-0.86323202 1.6400001 -2.007
-0.83963299 1.6400001 -1.996681
-0.81505299 1.6400001 -1.988853
-0.79180503 1.6400001 -1.9742529
-0.76740801 1.6400001 -1.972317
-0.74188501 1.6400001 -1.979305
-0.71213698 1.6400001 -1.986613
-0.68707901 1.6400001 -1.986825
-0.65701503 1.6400001 -1.9934599
-0.63092804 1.6400001 -1.9920731
-0.60257697 1.6400001 -1.996148
-0.57126999 1.6400001 -2.0024099
-0.53984499 1.6400001 -2.0046301
-0.50427699 1.6400001 -2.0199099
-0.46927804 1.6400001 -2.0235901
-0.43571997 1.6400001 -2.0292101
-0.40692198 1.6400001 -2.0227299
-0.37246102 1.6400001 -2.0234199
-0.32754999 1.6400001 -2.0379601
-0.29043204 1.6400001 -2.0384798
-0.25327802 1.6400001 -2.0408499
-0.22770399 1.6400001 -2.02139
-0.19225299 1.6400001 -2.0160499
-0.154414 1.6400001 -2.0116501
-0.10905904 1.6400001 -2.0159199
-0.10206401 1.6400001 -1.9729781
-0.036213994 1.6400001 -1.996397
0.0011399984 1.6400001 -1.98435
0.025329947 1.6400001 -1.9587541
0.067420006 1.6400001 -1.95271
0.099939942 1.6400001 -1.9347811
0.12343991 1.6400001 -1.907208
0.17605007 1.6400001 -1.903435
0.21494997 1.6400001 -1.887786
0.24690998 1.6400001 -1.8640051
0.28130007 1.6400001 -1.842556
0.31940007 1.6400001 -1.822453
0.34823 1.6400001 -1.794665
0.36625004 1.6400001 -1.761225
0.44737995 1.6400001 -1.761001
0.49633992 1.6400001 -1.7409611
0.58890998 1.6400001 -1.739339
0.67113006 1.6400001 -1.7309661
0.71952999 1.6400001 -1.701839
0.77686 1.6400001 -1.674299
-2.60621 1.6700001 -2.0587201
-2.5430799 1.6700001 -2.0717201
-2.4637699 1.6700001 -2.07144
-2.38377 1.6700001 -2.06721
-2.3247399 1.6700001 -2.0745502
-2.2434599 1.6700001 -2.0608401
-2.18098 1.6700001 -2.06161
-2.1253099 1.6700001 -2.0626402
-2.07391 1.6700001 -2.0640001
-2.02108 1.6700001 -2.06547
-1.962204 1.6700001 -2.05988
-1.90938 1.6700001 -2.05422
-1.8631821 1.6700001 -2.05355
-1.816653 1.6700001 -2.0488
-1.774334 1.6700001 -2.0476499
-1.7386241 1.6700001 -2.05303
-1.6953859 1.6700001 -2.0450301
-1.659358 1.6700001 -2.0469201
-1.619158 1.6700001 -2.03813
-1.582165 1.6700001 -2.0335698
-1.544641 1.6700001 -2.02702
-1.515306 1.6700001 -2.03284
-1.486406 1.6700001 -2.0401402
-1.454967 1.6700001 -2.04091
-1.421252 1.6700001 -2.03128
-1.393014 1.6700001 -2.03649
-1.362404 1.6700001 -2.0314398
-1.334415 1.6700001 -2.0340199
-1.33042 1.6700001 -2.10882
-1.3028049 1.6700001 -2.1166701
-1.274179 1.6700001 -2.1191502
-1.244527 1.6700001 -2.11449
-1.215628 1.6700001 -2.11255
-1.181968 1.6700001 -2.0947299
-1.154681 1.6700001 -2.0898299
-1.125056 1.6700001 -2.0792799
-1.0981232 1.6700001 -2.0775399
-1.07221 1.6700001 -2.0836
-1.0450678 1.6700001 -2.0938201
-1.0182977 1.6700001 -2.0820999
-0.99173242 1.6700001 -2.0827198
-0.96483922 1.6700001 -2.06517
-0.93892479 1.6700001 -2.06024
-0.9131304 1.6700001 -2.0489101
-0.88785398 1.6700001 -2.0397201
-0.86069298 1.6700001 -2.0341601
-0.836936 1.6700001 -2.02233
-0.81348902 1.6700001 -2.0109401
-0.78731203 1.6700001 -2.0060101
-0.763363 1.6700001 -2.0037298
-0.73559296 1.6700001 -2.0076399
-0.70699704 1.6700001 -2.01037
-0.68197799 1.6700001 -2.0095999
-0.65556598 1.6700001 -2.00565
-0.62262398 1.6700001 -2.0177898
-0.59294295 1.6700001 -2.01949
-0.55674601 1.6700001 -2.0348101
-0.53255802 1.6700001 -2.02054
-0.49484098 1.6700001 -2.0364499
-0.45937097 1.6700001 -2.04549
-0.43604302 1.6700001 -2.02597
-0.40147603 1.6700001 -2.02824
-0.362203 1.6700001 -2.03825
-0.31892902 1.6700001 -2.0487599
-0.28563702 1.6700001 -2.0455
-0.25478995 1.6700001 -2.0351601
-0.22293001 1.6700001 -2.02248
-0.18691802 1.6700001 -2.0181899
-0.14860201 1.6700001 -2.01297
-0.11307597 1.6700001 -2.0041399
-0.074043036 1.6700001 -1.999505
-0.033675015 1.6700001 -1.9935851
-0.0038700104 1.6700001 -1.9741
0.037319899 1.6700001 -1.966791
0.075540066 1.6700001 -1.952606
0.099290013 1.6700001 -1.9254861
0.15233994 1.6700001 -1.9243309
0.18803 1.6700001 -1.903401
0.22055006 1.6700001 -1.8822119
0.25937998 1.6700001 -1.863529
0.29778004 1.6700001 -1.8442991
0.33131993 1.6700001 -1.819833
0.35168004 1.6700001 -1.785808
0.43259001 1.6700001 -1.78798
0.48212004 1.6700001 -1.768465
0.54227006 1.6700001 -1.7506551
0.65830004 1.6700001 -1.759011
0.70784998 1.6700001 -1.730443
0.7651999 1.6700001 -1.704244
0.81481993 1.6700001 -1.6734619
-2.60062 1.6700001 -2.07076
-2.51755 1.6700001 -2.0694001
-2.44681 1.6700001 -2.07548
-2.36691 1.6700001 -2.0697498
-2.28967 1.6700001 -2.0625401
-2.2298598 1.6700001 -2.0644002
-2.1735601 1.6700001 -2.0683298
-2.1126199 1.6700001 -2.0651
-2.05565 1.6700001 -2.06142
-2.0037599 1.6700001 -2.0646901
-1.942521 1.6700001 -2.0513802
-1.8996329 1.6700001 -2.05567
-1.850656 1.6700001 -2.04989
-1.807279 1.6700001 -2.0490999
-1.768617 1.6700001 -2.05247
-1.730166 1.6700001 -2.0525301
-1.689813 1.6700001 -2.0490201
-1.6444299 1.6700001 -2.0388498
-1.6071 1.6700001 -2.0345201
-1.5771661 1.6700001 -2.04123
-1.542598 1.6700001 -2.04024
-1.5070651 1.6700001 -2.0310602
-1.481231 1.6700001 -2.0461202
-1.446995 1.6700001 -2.0372901
-1.4163671 1.6700001 -2.0354199
-1.387072 1.6700001 -2.0387201
-1.3546979 1.6700001 -2.02829
-1.333594 1.6700001 -2.05003
-1.322735 1.6700001 -2.1061301
-1.295572 1.6700001 -2.1152501
-1.266513 1.6700001 -2.1127801
-1.235262 1.6700001 -2.1083102
-1.207083 1.6700001 -2.1022201
-1.174091 1.6700001 -2.0838599
-1.145673 1.6700001 -2.07038
-1.117787 1.6700001 -2.0728002
-1.0919462 1.6700001 -2.0745699
-1.0662462 1.6700001 -2.08799
-1.0393988 1.6700001 -2.0857902
-1.0114065 1.6700001 -2.0724399
-0.98560828 1.6700001 -2.0553999
-0.96089011 1.6700001 -2.0540199
-0.9344607 1.6700001 -2.0527101
-0.90640569 1.6700001 -2.04356
-0.88031298 1.6700001 -2.04039
-0.85465002 1.6700001 -2.0404
-0.829108 1.6700001 -2.02637
-0.80616301 1.6700001 -2.0164299
-0.78207999 1.6700001 -2.00899
-0.75393403 1.6700001 -2.0163898
-0.72480601 1.6700001 -2.0192499
-0.69844103 1.6700001 -2.0190701
-0.67004699 1.6700001 -2.0202198
-0.64392197 1.6700001 -2.0143099
-0.61356997 1.6700001 -2.0208101
-0.58109498 1.6700001 -2.03035
-0.55157197 1.6700001 -2.03285
-0.51632702 1.6700001 -2.0416899
-0.48841 1.6700001 -2.03385
-0.46151704 1.6700001 -2.02349
-0.42494398 1.6700001 -2.03211
-0.38941801 1.6700001 -2.03334
-0.35247499 1.6700001 -2.0375199
-0.31924498 1.6700001 -2.0346301
-0.28024703 1.6700001 -2.03511
-0.25854903 1.6700001 -2.0141101
-0.230443 1.6700001 -1.998951
-0.18916202 1.6700001 -2.0007401
-0.15539205 1.6700001 -1.992192
-0.11302501 1.6700001 -1.991048
-0.070574999 1.6700001 -1.989089
-0.037885964 1.6700001 -1.9742601
0.0011399984 1.6700001 -1.966791
0.031380057 1.6700001 -1.945601
0.076979995 1.6700001 -1.941891
0.11012995 1.6700001 -1.9222651
0.15204 1.6700001 -1.912274
0.18718994 1.6700001 -1.892077
0.22456002 1.6700001 -1.874481
0.25836003 1.6700001 -1.85127
0.28409994 1.6700001 -1.824477
0.32853007 1.6700001 -1.806666
0.38240004 1.6700001 -1.793609
0.43706989 1.6700001 -1.7792521
0.49520993 1.6700001 -1.7654459
0.57344997 1.6700001 -1.7568259
0.67311001 1.6700001 -1.7542281
0.71056008 1.6700001 -1.72279
0.77965999 1.6700001 -1.701025
0.80912995 1.6700001 -1.6607051
-2.6492801 1.6700001 -2.0608501
-2.57392 1.6700001 -2.0678802
-2.5023 1.6700001 -2.0740499
-2.4177599 1.6700001 -2.0671501
-2.3519499 1.6700001 -2.0717802
-2.2828002 1.6700001 -2.0692601
-2.21714 1.6700001 -2.0668199
-2.15576 1.6700001 -2.06371
-2.0956202 1.6700001 -2.0615001
-2.0455699 1.6700001 -2.0622401
-1.9924591 1.6700001 -2.06603
-1.934914 1.6700001 -2.05615
-1.885645 1.6700001 -2.0508101
-1.8444979 1.6700001 -2.0551701
-1.797945 1.6700001 -2.0499501
-1.756851 1.6700001 -2.0471101
-1.721295 1.6700001 -2.0531802
-1.681493 1.6700001 -2.04878
-1.6432099 1.6700001 -2.0457802
-1.603555 1.6700001 -2.03688
-1.563198 1.6700001 -2.0292301
-1.534049 1.6700001 -2.0362301
-1.505602 1.6700001 -2.0409598
-1.47425 1.6700001 -2.03914
-1.441583 1.6700001 -2.0371599
-1.410836 1.6700001 -2.03386
-1.380772 1.6700001 -2.0304
-1.349846 1.6700001 -2.0296898
-1.3317981 1.6700001 -2.0634398
-1.319423 1.6700001 -2.1128101
-1.2909451 1.6700001 -2.1162
-1.261598 1.6700001 -2.1178
-1.229962 1.6700001 -2.1055899
-1.201625 1.6700001 -2.1029701
-1.171151 1.6700001 -2.09217
-1.142339 1.6700001 -2.0811701
-1.114941 1.6700001 -2.0738699
-1.0866905 1.6700001 -2.0752602
-1.0622829 1.6700001 -2.0812101
-1.0349001 1.6700001 -2.0934401
-1.0078913 1.6700001 -2.0717201
-0.98152751 1.6700001 -2.0750899
-0.95565999 1.6700001 -2.0620699
-0.93094248 1.6700001 -2.0492301
-0.90462011 1.6700001 -2.04742
-0.87934697 1.6700001 -2.04128
-0.85382903 1.6700001 -2.0380101
-0.83001101 1.6700001 -2.0209498
-0.805619 1.6700001 -2.0132699
-0.78015399 1.6700001 -2.00857
-0.754484 1.6700001 -2.0057201
-0.72366202 1.6700001 -2.02127
-0.69858199 1.6700001 -2.01859
-0.67214406 1.6700001 -2.01091
-0.64212501 1.6700001 -2.0176601
-0.615605 1.6700001 -2.01543
-0.58146799 1.6700001 -2.0318499
-0.54991198 1.6700001 -2.03513
-0.51857799 1.6700001 -2.0383201
-0.48924601 1.6700001 -2.0328701
-0.45553303 1.6700001 -2.03898
-0.42311901 1.6700001 -2.0353899
-0.39813501 1.6700001 -2.02368
-0.35375798 1.6700001 -2.03861
-0.31062204 1.6700001 -2.0496001
-0.27951896 1.6700001 -2.0409899
-0.25667602 1.6700001 -2.02017
-0.22073102 1.6700001 -2.01671
-0.18475503 1.6700001 -2.01068
-0.15055799 1.6700001 -2.0028501
-0.10985398 1.6700001 -2.0006199
-0.073646009 1.6700001 -1.9923079
-0.037218034 1.6700001 -1.980269
-0.00024402142 1.6700001 -1.970736
0.039280057 1.6700001 -1.9617491
0.078770041 1.6700001 -1.9497061
0.11178005 1.6700001 -1.9323821
0.15462995 1.6700001 -1.919461
0.19443011 1.6700001 -1.90365
0.22105002 1.6700001 -1.878525
0.26480007 1.6700001 -1.862689
0.28744996 1.6700001 -1.833585
0.33241999 1.6700001 -1.818511
0.37892008 1.6700001 -1.800135
0.42621994 1.6700001 -1.782958
0.47477007 1.6700001 -1.763633
0.55125999 1.6700001 -1.755031
0.65812004 1.6700001 -1.76002
0.71667004 1.6700001 -1.7358789
0.76443005 1.6700001 -1.70617
0.80536997 1.6700001 -1.671634
-2.6343598 1.6700001 -2.0613699
-2.55847 1.6700001 -2.0692301
-2.4798698 1.6700001 -2.0684199
-2.4109201 1.6700001 -2.07411
-2.33232 1.6700001 -2.06513
-2.27123 1.6700001 -2.0690601
-2.2007799 1.6700001 -2.0611899
-2.1461601 1.6700001 -2.0641499
-2.0827899 1.6700001 -2.0571098
-2.03058 1.6700001 -2.0573399
-1.978233 1.6700001 -2.0611501
-1.9261739 1.6700001 -2.0555201
-1.8787739 1.6700001 -2.0513501
-1.835559 1.6700001 -2.0539799
-1.7934511 1.6700001 -2.0511501
-1.7486579 1.6700001 -2.04777
-1.7117801 1.6700001 -2.0490799
-1.668483 1.6700001 -2.0405202
-1.630227 1.6700001 -2.0373101
-1.592472 1.6700001 -2.0294299
-1.5655069 1.6700001 -2.0422101
-1.530147 1.6700001 -2.0390699
-1.5037119 1.6700001 -2.0457602
-1.468244 1.6700001 -2.04022
-1.434639 1.6700001 -2.0341201
-1.4054639 1.6700001 -2.0367899
-1.377214 1.6700001 -2.0346301
-1.346156 1.6700001 -2.02988
-1.3350151 1.6700001 -2.0778899
-1.317464 1.6700001 -2.11285
-1.287962 1.6700001 -2.11724
-1.258545 1.6700001 -2.1115799
-1.227246 1.6700001 -2.1030898
-1.1978641 1.6700001 -2.09934
-1.168636 1.6700001 -2.08776
-1.140674 1.6700001 -2.07761
-1.112656 1.6700001 -2.0718498
-1.0864574 1.6700001 -2.07603
-1.0607524 1.6700001 -2.0802901
-1.0344296 1.6700001 -2.0787001
-1.0076009 1.6700001 -2.07197
-0.98186249 1.6700001 -2.0555899
-0.95599103 1.6700001 -2.06109
-0.93095887 1.6700001 -2.04898
-0.90299112 1.6700001 -2.0432501
-0.87776899 1.6700001 -2.03758
-0.85064697 1.6700001 -2.0360401
-0.82742202 1.6700001 -2.0210199
-0.80246496 1.6700001 -2.0162301
-0.77578998 1.6700001 -2.0232201
-0.74802399 1.6700001 -2.02369
-0.72246701 1.6700001 -2.02017
-0.69774902 1.6700001 -2.0183401
-0.66993797 1.6700001 -2.0167699
-0.64215398 1.6700001 -2.01846
-0.61392403 1.6700001 -2.01987
-0.57931501 1.6700001 -2.0298901
-0.54903799 1.6700001 -2.03175
-0.51506299 1.6700001 -2.04441
-0.48800802 1.6700001 -2.0325301
-0.45128697 1.6700001 -2.0415502
-0.42234999 1.6700001 -2.0360999
-0.389727 1.6700001 -2.0341001
-0.35024405 1.6700001 -2.0417199
-0.317321 1.6700001 -2.03755
-0.27881002 1.6700001 -2.0402
-0.25432098 1.6700001 -2.0234001
-0.22583699 1.6700001 -2.0083399
-0.18832803 1.6700001 -2.00457
-0.14758599 1.6700001 -2.00524
-0.10941499 1.6700001 -2.00056
-0.076393962 1.6700001 -1.9866631
-0.039656997 1.6700001 -1.9756551
0.00090003014 1.6700001 -1.969198
0.028749943 1.6700001 -1.94993
0.071229935 1.6700001 -1.940482
0.10883999 1.6700001 -1.928885
0.15395999 1.6700001 -1.9178979
0.18847001 1.6700001 -1.901176
0.22612 1.6700001 -1.882175
0.2593199 1.6700001 -1.8609641
0.28635001 1.6700001 -1.8343661
0.32603002 1.6700001 -1.814585
0.35923994 1.6700001 -1.78971
0.42622995 1.6700001 -1.7834671
0.49054003 1.6700001 -1.771795
0.55133998 1.6700001 -1.757161
0.65763998 1.6700001 -1.7592549
0.71626997 1.6700001 -1.736815
0.77581 1.6700001 -1.710721
0.81278002 1.6700001 -1.6760809
-2.6423001 1.6700001 -2.07162
-2.5570102 1.6700001 -2.0713601
-2.4771299 1.6700001 -2.0713501
-2.40886 1.6700001 -2.0755801
-2.33039 1.6700001 -2.06954
-2.2617199 1.6700001 -2.0675402
-2.20349 1.6700001 -2.0694499
-2.1420898 1.6700001 -2.0685201
-2.0829601 1.6700001 -2.0648
-2.0263 1.6700001 -2.0604501
-1.975409 1.6700001 -2.0627198
-1.9232919 1.6700001 -2.0580401
-1.878749 1.6700001 -2.0565801
-1.830315 1.6700001 -2.0520699
-1.78803 1.6700001 -2.0499101
-1.747224 1.6700001 -2.0481701
-1.709496 1.6700001 -2.05002
-1.671042 1.6700001 -2.0501599
-1.6305749 1.6700001 -2.0423598
-1.595052 1.6700001 -2.04178
-1.561285 1.6700001 -2.0405202
-1.527143 1.6700001 -2.03948
-1.498101 1.6700001 -2.0442901
-1.466359 1.6700001 -2.0413399
-1.432158 1.6700001 -2.0313702
-1.403314 1.6700001 -2.0362802
-1.372861 1.6700001 -2.03142
-1.344892 1.6700001 -2.0345201
-1.3350639 1.6700001 -2.0948801
-1.310179 1.6700001 -2.11023
-1.2844861 1.6700001 -2.11761
-1.251951 1.6700001 -2.1092501
-1.2225339 1.6700001 -2.1030302
-1.19198 1.6700001 -2.0922599
-1.1640639 1.6700001 -2.08163
-1.13547 1.6700001 -2.07424
-1.107249 1.6700001 -2.07391
-1.0814492 1.6700001 -2.07617
-1.0548848 1.6700001 -2.08111
-1.0291274 1.6700001 -2.0786099
-1.0029125 1.6700001 -2.0679998
-0.97667563 1.6700001 -2.0557399
-0.94949162 1.6700001 -2.0575399
-0.92457718 1.6700001 -2.0497899
-0.89731801 1.6700001 -2.04547
-0.87208903 1.6700001 -2.0394101
-0.84671903 1.6700001 -2.03724
-0.82221997 1.6700001 -2.0196199
-0.79793698 1.6700001 -2.0115199
-0.77131301 1.6700001 -2.0183902
-0.74562198 1.6700001 -2.0120201
-0.715635 1.6700001 -2.0232201
-0.68995404 1.6700001 -2.01809
-0.667458 1.6700001 -2.00754
-0.63313198 1.6700001 -2.0226901
-0.60651505 1.6700001 -2.0167699
-0.57206398 1.6700001 -2.0331302
-0.54397899 1.6700001 -2.02952
-0.50821102 1.6700001 -2.0376
-0.48025095 1.6700001 -2.0339699
-0.44679201 1.6700001 -2.03634
-0.41988504 1.6700001 -2.0292802
-0.375889 1.6700001 -2.0444899
-0.33951896 1.6700001 -2.0468001
-0.30490696 1.6700001 -2.04583
-0.27112502 1.6700001 -2.0415502
-0.23960102 1.6700001 -2.0299699
-0.20861101 1.6700001 -2.0209398
-0.17336899 1.6700001 -2.0139999
-0.13545698 1.6700001 -2.01002
-0.096552014 1.6700001 -2.0044799
-0.060742021 1.6700001 -1.9935629
-0.023690999 1.6700001 -1.9827199
0.013509989 1.6700001 -1.973408
0.051010013 1.6700001 -1.960439
0.087960005 1.6700001 -1.946795
0.11696994 1.6700001 -1.9253759
0.16085994 1.6700001 -1.913607
0.19999003 1.6700001 -1.897094
0.23281991 1.6700001 -1.875816
0.27668989 1.6700001 -1.861645
0.31054008 1.6700001 -1.837423
0.35099995 1.6700001 -1.8182969
0.37002003 1.6700001 -1.78303
0.43770993 1.6700001 -1.7780759
0.50381994 1.6700001 -1.7672701
0.59862995 1.6700001 -1.7673299
0.68283999 1.6700001 -1.756961
0.71223998 1.6700001 -1.7207479
0.76998997 1.6700001 -1.695546
0.8312 1.6700001 -1.668766
-2.6096101 1.7 -2.0347199
-2.51917 1.7 -2.0301299
-2.4502301 1.7 -2.0368299
-2.37884 1.7 -2.0390301
-2.3154202 1.7 -2.0434101
-2.2423 1.7 -2.0378001
-2.16273 1.7 -2.02194
-2.12675 1.7 -2.03985
-2.0744801 1.7 -2.0427198
-2.0190001 1.7 -2.0403399
-1.963788 1.7 -2.03807
-1.9142801 1.7 -2.0356801
-1.870609 1.7 -2.0392799
-1.823742 1.7 -2.0355899
-1.7835469 1.7 -2.0345101
-1.746722 1.7 -2.0408499
-1.704209 1.7 -2.0348802
-1.663149 1.7 -2.0279
-1.630425 1.7 -2.0357199
-1.592689 1.7 -2.0278599
-1.55235 1.7 -2.0166402
-1.529116 1.7 -2.03426
-1.496029 1.7 -2.0355799
-1.461061 1.7 -2.02426
-1.431443 1.7 -2.02652
-1.402831 1.7 -2.0292301
-1.374694 1.7 -2.0320899
-1.356437 1.7 -2.06335
-1.3405631 1.7 -2.1010299
-1.311828 1.7 -2.1102901
-1.278513 1.7 -2.0953999
-1.251444 1.7 -2.0973101
-1.220211 1.7 -2.0915101
-1.190515 1.7 -2.0770302
-1.161307 1.7 -2.06738
-1.133943 1.7 -2.07393
-1.108178 1.7 -2.0743198
-1.0819396 1.7 -2.0826502
-1.0538383 1.7 -2.0779099
-1.0285794 1.7 -2.0691199
-1.0017217 1.7 -2.0522499
-0.97539067 1.7 -2.06146
-0.9497897 1.7 -2.0513
-0.92323709 1.7 -2.04844
-0.89642501 1.7 -2.04287
-0.87126303 1.7 -2.0367899
-0.84596097 1.7 -2.02878
-0.82143599 1.7 -2.0159299
-0.79397899 1.7 -2.0211802
-0.76881897 1.7 -2.0216699
-0.74044299 1.7 -2.0267
-0.71413803 1.7 -2.0264399
-0.68834603 1.7 -2.0183802
-0.656919 1.7 -2.02722
-0.62932402 1.7 -2.0244999
-0.595828 1.7 -2.0418501
-0.56808603 1.7 -2.0355401
-0.53381801 1.7 -2.0455301
-0.50305301 1.7 -2.04041
-0.46901298 1.7 -2.04706
-0.437859 1.7 -2.0434599
-0.40230703 1.7 -2.0457501
-0.36239505 1.7 -2.0559301
-0.32228899 1.7 -2.06251
-0.29156595 1.7 -2.0552502
-0.26241702 1.7 -2.04245
-0.227413 1.7 -2.03462
-0.18971699 1.7 -2.0318799
-0.153813 1.7 -2.0248001
-0.11444896 1.7 -2.0209599
-0.074228048 1.7 -2.01529
-0.044822037 1.7 -1.996703
-0.0039870143 1.7 -1.9905961
0.034000039 1.7 -1.97909
0.068800092 1.7 -1.961292
0.093010068 1.7 -1.935586
0.15067005 1.7 -1.937525
0.18924999 1.7 -1.920297
0.22437 1.7 -1.9003129
0.26905 1.7 -1.886023
0.30373001 1.7 -1.863941
0.33832991 1.7 -1.8393309
0.37099004 1.7 -1.8141351
0.43481004 1.7 -1.8055921
0.49987996 1.7 -1.7943571
0.60440004 1.7 -1.801019
0.68127 1.7 -1.787343
0.69018996 1.7 -1.740404
0.75952005 1.7 -1.72096
0.8205601 1.7 -1.6937239
-2.6640799 1.7 -2.0360501
-2.5690601 1.7 -2.03423
-2.4987299 1.7 -2.04092
-2.41644 1.7 -2.0362
-2.3441999 1.7 -2.0378699
-2.2757401 1.7 -2.03653
-2.21874 1.7 -2.0409
-2.1623001 1.7 -2.04425
-2.10461 1.7 -2.04196
-2.0465698 1.7 -2.0397401
-1.990574 1.7 -2.0330701
-1.938236 1.7 -2.0306602
-1.895205 1.7 -2.0360799
-1.846598 1.7 -2.03158
-1.8080809 1.7 -2.0348802
-1.768765 1.7 -2.0371499
-1.7269861 1.7 -2.0352399
-1.685976 1.7 -2.02967
-1.650919 1.7 -2.0297799
-1.6101711 1.7 -2.0237
-1.572505 1.7 -2.01577
-1.54773 1.7 -2.02878
-1.517045 1.7 -2.0342
-1.480243 1.7 -2.0225999
-1.450774 1.7 -2.0244598
-1.4199209 1.7 -2.0264201
-1.391632 1.7 -2.02525
-1.3607609 1.7 -2.02141
-1.3564301 1.7 -2.09495
-1.3311679 1.7 -2.1091099
-1.3015621 1.7 -2.1120901
-1.270851 1.7 -2.10427
-1.239599 1.7 -2.09919
-1.2083321 1.7 -2.0780501
-1.1788731 1.7 -2.0671101
-1.151462 1.7 -2.0713501
-1.125275 1.7 -2.0684299
-1.0994165 1.7 -2.0819399
-1.0742471 1.7 -2.0917301
-1.0455954 1.7 -2.0780401
-1.0174294 1.7 -2.06511
-0.99108332 1.7 -2.0547099
-0.96663159 1.7 -2.0544701
-0.93898523 1.7 -2.0492301
-0.91470277 1.7 -2.0472801
-0.886787 1.7 -2.04162
-0.86137301 1.7 -2.0355101
-0.83741099 1.7 -2.0211401
-0.81274301 1.7 -2.02122
-0.785182 1.7 -2.0285602
-0.75985503 1.7 -2.01986
-0.73074496 1.7 -2.0249701
-0.70400399 1.7 -2.0227799
-0.67945498 1.7 -2.0195498
-0.64816594 1.7 -2.0245199
-0.615762 1.7 -2.0397801
-0.58370101 1.7 -2.0459499
-0.55463505 1.7 -2.0428801
-0.52159798 1.7 -2.0482399
-0.49393898 1.7 -2.0404601
-0.456788 1.7 -2.0497799
-0.428783 1.7 -2.0405202
-0.39038599 1.7 -2.0492601
-0.35105699 1.7 -2.05898
-0.31285197 1.7 -2.06001
-0.286066 1.7 -2.0461001
-0.25057101 1.7 -2.03983
-0.21890998 1.7 -2.0300999
-0.18033397 1.7 -2.02701
-0.14672899 1.7 -2.01858
-0.10338199 1.7 -2.0195899
-0.066713035 1.7 -2.0090699
-0.030210018 1.7 -1.998237
0.011309981 1.7 -1.991109
0.042079926 1.7 -1.971223
0.074469924 1.7 -1.955322
0.12221992 1.7 -1.947933
0.15685999 1.7 -1.9310751
0.19554007 1.7 -1.913753
0.23495996 1.7 -1.897254
0.27987003 1.7 -1.882715
0.30718994 1.7 -1.855502
0.34159994 1.7 -1.831727
0.39697993 1.7 -1.818786
0.45296001 1.7 -1.804873
0.52079999 1.7 -1.793789
0.60897994 1.7 -1.792917
0.69468009 1.7 -1.784621
0.69452 1.7 -1.7329569
0.7744 1.7 -1.716903
0.83643997 1.7 -1.690614
-2.6262701 1.7 -2.0304499
-2.54459 1.7 -2.03267
-2.47333 1.7 -2.0388398
-2.4000602 1.7 -2.04073
-2.32287 1.7 -2.03354
-2.26332 1.7 -2.0390899
-2.1935699 1.7 -2.03299
-2.1410501 1.7 -2.0364499
-2.08775 1.7 -2.0390201
-2.0285699 1.7 -2.03194
-1.979997 1.7 -2.0338299
-1.9270201 1.7 -2.03069
-1.880046 1.7 -2.0309701
-1.835585 1.7 -2.0267
-1.797591 1.7 -2.0306802
-1.760411 1.7 -2.0364799
-1.720035 1.7 -2.0349102
-1.6766649 1.7 -2.0241499
-1.643914 1.7 -2.0279799
-1.605623 1.7 -2.02494
-1.56572 1.7 -2.0146999
-1.5437989 1.7 -2.0308599
-1.511155 1.7 -2.0315499
-1.479038 1.7 -2.0272999
-1.445682 1.7 -2.02423
-1.4160841 1.7 -2.02421
-1.388451 1.7 -2.0269899
-1.363481 1.7 -2.0345001
-1.354647 1.7 -2.09658
-1.327399 1.7 -2.1052799
-1.298082 1.7 -2.10163
-1.269706 1.7 -2.10481
-1.238153 1.7 -2.0997601
-1.208477 1.7 -2.08516
-1.176386 1.7 -2.0647399
-1.14939 1.7 -2.0650699
-1.124052 1.7 -2.0680699
-1.0997368 1.7 -2.0854301
-1.0738704 1.7 -2.09501
-1.0447445 1.7 -2.07882
-1.0183049 1.7 -2.06534
-0.99165064 1.7 -2.0557199
-0.96712118 1.7 -2.05724
-0.9406597 1.7 -2.0500698
-0.91555959 1.7 -2.0473499
-0.887923 1.7 -2.0417399
-0.86402601 1.7 -2.0393901
-0.84019703 1.7 -2.02158
-0.81356198 1.7 -2.0183201
-0.78679001 1.7 -2.0222502
-0.76210099 1.7 -2.01653
-0.733576 1.7 -2.02442
-0.70748299 1.7 -2.0211802
-0.68389201 1.7 -2.0141301
-0.65188098 1.7 -2.0255299
-0.61951995 1.7 -2.03743
-0.58916199 1.7 -2.0438099
-0.56106997 1.7 -2.0372
-0.52918202 1.7 -2.0429001
-0.49795699 1.7 -2.0415699
-0.46001297 1.7 -2.0562201
-0.43332201 1.7 -2.0464101
-0.39706498 1.7 -2.0522499
-0.35846603 1.7 -2.0585201
-0.320436 1.7 -2.0622201
-0.29120302 1.7 -2.04898
-0.25654304 1.7 -2.0434899
-0.22538596 1.7 -2.0349798
-0.18651098 1.7 -2.0319099
-0.14894801 1.7 -2.0272601
-0.10640001 1.7 -2.0285401
-0.069401979 1.7 -2.02003
-0.040525973 1.7 -2.00228
-0.0042570233 1.7 -1.990867
0.034270048 1.7 -1.9788079
0.063140035 1.7 -1.959355
0.091930032 1.7 -1.9372389
0.15004003 1.7 -1.939096
0.18793988 1.7 -1.922395
0.22254002 1.7 -1.9015369
0.26726997 1.7 -1.8868339
0.29755008 1.7 -1.862396
0.3424201 1.7 -1.845981
0.36301005 1.7 -1.8119099
0.43153 1.7 -1.8078599
0.50609994 1.7 -1.802914
0.60288 1.7 -1.80463
0.66943002 1.7 -1.7890251
0.68795991 1.7 -1.745471
0.75600004 1.7 -1.7262371
0.81817007 1.7 -1.701345
-2.6301301 1.7 -2.0248101
-2.5475402 1.7 -2.0273299
-2.4770601 1.7 -2.0348501
-2.40483 1.7 -2.03597
-2.3323102 1.7 -2.03566
-2.2662401 1.7 -2.03513
-2.2029099 1.7 -2.0336399
-2.15484 1.7 -2.0409598
-2.09254 1.7 -2.03508
-2.0422802 1.7 -2.0366101
-1.97893 1.7 -2.0248399
-1.933684 1.7 -2.0324202
-1.886493 1.7 -2.0293899
-1.841512 1.7 -2.0276699
-1.80398 1.7 -2.0307901
-1.764214 1.7 -2.03337
-1.7254 1.7 -2.0323801
-1.677519 1.7 -2.01878
-1.650357 1.7 -2.0301299
-1.6096361 1.7 -2.0234399
-1.57899 1.7 -2.0253201
-1.54724 1.7 -2.0298901
-1.517215 1.7 -2.0338399
-1.486045 1.7 -2.0320201
-1.450426 1.7 -2.0221601
-1.4212201 1.7 -2.0248101
-1.392392 1.7 -2.02389
-1.3637121 1.7 -2.0261998
-1.3596621 1.7 -2.0957298
-1.333673 1.7 -2.1075799
-1.308216 1.7 -2.1149302
-1.274639 1.7 -2.10024
-1.244447 1.7 -2.0983801
-1.214527 1.7 -2.0878
-1.18434 1.7 -2.0745502
-1.158141 1.7 -2.0741701
-1.13157 1.7 -2.0739698
-1.105297 1.7 -2.07511
-1.0796472 1.7 -2.0878401
-1.0511332 1.7 -2.0767901
-1.0245489 1.7 -2.07147
-0.99825698 1.7 -2.0652499
-0.9728688 1.7 -2.0581501
-0.94732171 1.7 -2.0546899
-0.921727 1.7 -2.0455699
-0.89342099 1.7 -2.0385499
-0.86881304 1.7 -2.0357199
-0.84457999 1.7 -2.0227599
-0.81932199 1.7 -2.0165701
-0.79415798 1.7 -2.01458
-0.770257 1.7 -2.00892
-0.73808599 1.7 -2.02894
-0.71276999 1.7 -2.0216401
-0.68881702 1.7 -2.0148602
-0.65656 1.7 -2.02737
-0.629673 1.7 -2.02968
-0.59351301 1.7 -2.0444398
-0.56598002 1.7 -2.03899
-0.53410304 1.7 -2.04565
-0.50468701 1.7 -2.0406399
-0.46734601 1.7 -2.05462
-0.44318599 1.7 -2.0369601
-0.40146697 1.7 -2.04987
-0.35826302 1.7 -2.0680299
-0.32420599 1.7 -2.06462
-0.29315501 1.7 -2.0566201
-0.26010305 1.7 -2.04632
-0.22889602 1.7 -2.0385299
-0.19163597 1.7 -2.0346599
-0.15303499 1.7 -2.0303102
-0.112477 1.7 -2.02719
-0.080250978 1.7 -2.01368
-0.043030024 1.7 -2.0029402
-0.0017279983 1.7 -1.997183
0.031960011 1.7 -1.981969
0.065540075 1.7 -1.964159
0.090379953 1.7 -1.9405689
0.14649999 1.7 -1.941435
0.18612003 1.7 -1.925139
0.21938002 1.7 -1.9053839
0.25839007 1.7 -1.8872869
0.29929006 1.7 -1.8696971
0.32788002 1.7 -1.841378
0.42171001 1.7 -1.80744
0.48737001 1.7 -1.797105
0.59042001 1.7 -1.8054509
0.67697001 1.7 -1.7976301
0.68627 1.7 -1.7529809
0.75414002 1.7 -1.733321
0.81517005 1.7 -1.707019
-2.61236 1.7 -2.0309
-2.5398102 1.7 -2.0380001
-2.4458199 1.7 -2.0300999
-2.38256 1.7 -2.0353398
-2.31691 1.7 -2.0399201
-2.2456899 1.7 -2.03373
-2.17784 1.7 -2.0278301
-2.1245201 1.7 -2.0315599
-2.0787301 1.7 -2.0383101
-2.0184999 1.7 -2.0313601
-1.963535 1.7 -2.0304399
-1.917116 1.7 -2.0314999
-1.8687999 1.7 -2.0274
-1.826211 1.7 -2.0265698
-1.7879241 1.7 -2.0314898
-1.7502949 1.7 -2.0321
-1.7099791 1.7 -2.03001
-1.664495 1.7 -2.0195799
-1.6348081 1.7 -2.0283399
-1.6006119 1.7 -2.0273099
-1.560611 1.7 -2.0172501
-1.535017 1.7 -2.02981
-1.503641 1.7 -2.0318999
-1.467164 1.7 -2.0206699
-1.438972 1.7 -2.0225
-1.410398 1.7 -2.0262299
-1.3789051 1.7 -2.0193601
-1.360105 1.7 -2.05234
-1.3486609 1.7 -2.0985
-1.321736 1.7 -2.11059
-1.289835 1.7 -2.1033201
-1.2610021 1.7 -2.10304
-1.2305729 1.7 -2.0965199
-1.200435 1.7 -2.0798101
-1.172188 1.7 -2.07201
-1.14408 1.7 -2.0695901
-1.117848 1.7 -2.0760698
-1.092607 1.7 -2.0823002
-1.0652981 1.7 -2.0920501
-1.0374297 1.7 -2.0718498
-1.010453 1.7 -2.0647001
-0.9843576 1.7 -2.06213
-0.96014148 1.7 -2.0509901
-0.93285149 1.7 -2.04635
-0.90642798 1.7 -2.0433102
-0.88099599 1.7 -2.0369401
-0.85738802 1.7 -2.0248799
-0.83122301 1.7 -2.0170901
-0.80589598 1.7 -2.01333
-0.781946 1.7 -2.01228
-0.75231701 1.7 -2.0255098
-0.725694 1.7 -2.02596
-0.69942099 1.7 -2.0177898
-0.66934597 1.7 -2.0310302
-0.64346999 1.7 -2.02634
-0.61046803 1.7 -2.03754
-0.57752705 1.7 -2.0432
-0.55316299 1.7 -2.0338199
-0.51782203 1.7 -2.0429301
-0.48053497 1.7 -2.0570002
-0.45981002 1.7 -2.0321898
-0.42158598 1.7 -2.0448298
-0.37959397 1.7 -2.05918
-0.34088999 1.7 -2.0644598
-0.30528599 1.7 -2.0640402
-0.27668905 1.7 -2.05058
-0.24230105 1.7 -2.0458798
-0.20755601 1.7 -2.0409398
-0.16855699 1.7 -2.0371199
-0.12990201 1.7 -2.0335
-0.092758954 1.7 -2.0248899
-0.048799038 1.7 -2.0245099
-0.023375988 1.7 -1.9992559
0.017859936 1.7 -1.993718
0.060629964 1.7 -1.986889
0.077819943 1.7 -1.9530511
0.13467002 1.7 -1.955273
0.16947997 1.7 -1.9365151
0.20291007 1.7 -1.91523
0.24806011 1.7 -1.902616
0.28858995 1.7 -1.88459
0.32264006 1.7 -1.8620141
0.35001004 1.7 -1.832867
0.40544999 1.7 -1.82015
0.45536995 1.7 -1.802063
0.52278006 1.7 -1.7932379
0.63696992 1.7 -1.802277
0.68615007 1.7 -1.775653
0.66617 1.7 -1.7185349
0.79643989 1.7 -1.722394
0.85938001 1.7 -1.6963511
-2.6620998 1.73 -2.0411201
-2.56884 1.73 -2.0359302
-2.49646 1.73 -2.0441899
-2.4288499 1.73 -2.0488801
-2.34971 1.73 -2.0450501
-2.2876999 1.73 -2.04917
-2.2047901 1.73 -2.0318298
-2.1628499 1.73 -2.0458899
-2.0979199 1.73 -2.0384798
-2.0465 1.73 -2.04194
-1.9977419 1.73 -2.04282
-1.9417329 1.73 -2.0413198
-1.893345 1.73 -2.0373499
-1.8483911 1.73 -2.03722
-1.802496 1.73 -2.03352
-1.766675 1.73 -2.0402498
-1.723562 1.73 -2.0327501
-1.686623 1.73 -2.03615
-1.650319 1.73 -2.0369501
-1.612044 1.73 -2.0313101
-1.5742691 1.73 -2.02281
-1.544525 1.73 -2.03019
-1.5137329 1.73 -2.0325
-1.479674 1.73 -2.0308599
-1.448419 1.73 -2.0282199
-1.4180551 1.73 -2.0274601
-1.389882 1.73 -2.0299201
-1.357643 1.73 -2.02145
-1.352445 1.73 -2.0928199
-1.323858 1.73 -2.0977201
-1.2913101 1.73 -2.0848198
-1.2679319 1.73 -2.10935
-1.235865 1.73 -2.09642
-1.204726 1.73 -2.0815401
-1.1747971 1.73 -2.06779
-1.147132 1.73 -2.0616
-1.121459 1.73 -2.06862
-1.0946178 1.73 -2.0680699
-1.0691018 1.73 -2.0767901
-1.0418334 1.73 -2.07218
-1.0135314 1.73 -2.05566
-0.98739821 1.73 -2.0501699
-0.96144682 1.73 -2.0545502
-0.93696737 1.73 -2.04936
-0.91074753 1.73 -2.0464499
-0.88477099 1.73 -2.0416501
-0.85855001 1.73 -2.03513
-0.83582103 1.73 -2.02215
-0.810516 1.73 -2.0208101
-0.78310299 1.73 -2.0245399
-0.75699496 1.73 -2.0220098
-0.72967601 1.73 -2.0267601
-0.70302802 1.73 -2.02302
-0.67526197 1.73 -2.0221601
-0.64663196 1.73 -2.0271702
-0.613976 1.73 -2.0359101
-0.58217502 1.73 -2.0448
-0.552755 1.73 -2.0409899
-0.52055895 1.73 -2.0474901
-0.49145097 1.73 -2.0398002
-0.45558798 1.73 -2.0486
-0.42470205 1.73 -2.0425501
-0.39163297 1.73 -2.0444899
-0.34730703 1.73 -2.0566702
-0.31205702 1.73 -2.0568099
-0.28236198 1.73 -2.04356
-0.24858695 1.73 -2.0383902
-0.21649104 1.73 -2.0292001
-0.177347 1.73 -2.0255799
-0.13786703 1.73 -2.0251801
-0.097068012 1.73 -2.02002
-0.060495019 1.73 -2.0108099
-0.030731976 1.73 -1.992812
0.0095399618 1.73 -1.98506
0.04531002 1.73 -1.9710469
0.076770067 1.73 -1.951598
0.10943007 1.73 -1.9324679
0.17010999 1.73 -1.934926
0.19772995 1.73 -1.911294
0.23845994 1.73 -1.8941309
0.28151 1.73 -1.8776751
0.32357991 1.73 -1.8605709
0.33131993 1.73 -1.819833
0.40524995 1.73 -1.819005
0.44901001 1.73 -1.795985
0.5231899 1.73 -1.7902839
0.62053001 1.73 -1.790383
0.67835999 1.73 -1.7698531
0.65962005 1.73 -1.7103491
0.8103199 1.73 -1.7233889
0.86084998 1.73 -1.6916981
-2.619 1.73 -2.0413799
-2.5278699 1.73 -2.03602
-2.4496701 1.73 -2.0376201
-2.3778801 1.73 -2.03948
-2.3062601 1.73 -2.03847
-2.21663 1.73 -2.01862
-2.16273 1.73 -2.02194
-2.1144099 1.73 -2.0318398
-2.07391 1.73 -2.0433002
-2.0134301 1.73 -2.03635
-1.9631079 1.73 -2.0373299
-1.9131219 1.73 -2.0343699
-1.867681 1.73 -2.0352101
-1.821192 1.73 -2.03123
-1.783133 1.73 -2.03514
-1.746714 1.73 -2.04024
-1.70421 1.73 -2.0336699
-1.668604 1.73 -2.0344901
-1.62893 1.73 -2.0313601
-1.593375 1.73 -2.02776
-1.558079 1.73 -2.02719
-1.5286469 1.73 -2.03057
-1.494753 1.73 -2.02788
-1.461311 1.73 -2.02333
-1.431163 1.73 -2.0266399
-1.40248 1.73 -2.02668
-1.372419 1.73 -2.0214801
-1.34464 1.73 -2.02723
-1.334357 1.73 -2.0799201
-1.307253 1.73 -2.0871701
-1.277246 1.73 -2.0866899
-1.251687 1.73 -2.0970001
-1.221451 1.73 -2.0915101
-1.1885689 1.73 -2.06265
-1.162885 1.73 -2.0699201
-1.135955 1.73 -2.06637
-1.109198 1.73 -2.07271
-1.083499 1.73 -2.0797801
-1.0565426 1.73 -2.06775
-1.028958 1.73 -2.06161
-1.00345 1.73 -2.05424
-0.97756588 1.73 -2.0545101
-0.95012379 1.73 -2.0503199
-0.92441678 1.73 -2.0480299
-0.89875501 1.73 -2.0395799
-0.873164 1.73 -2.03299
-0.84818101 1.73 -2.0273399
-0.82320499 1.73 -2.02055
-0.79783899 1.73 -2.0120101
-0.76983398 1.73 -2.0249801
-0.74170303 1.73 -2.0228901
-0.715671 1.73 -2.02634
-0.68776906 1.73 -2.02526
-0.65992403 1.73 -2.0284801
-0.62998098 1.73 -2.0305901
-0.59784102 1.73 -2.0383401
-0.56836301 1.73 -2.0364599
-0.53333402 1.73 -2.0496898
-0.50481999 1.73 -2.0462298
-0.47147197 1.73 -2.0485799
-0.43775797 1.73 -2.0504999
-0.406654 1.73 -2.0427599
-0.36540598 1.73 -2.0574498
-0.329009 1.73 -2.0564201
-0.29523104 1.73 -2.0529001
-0.26700503 1.73 -2.0395699
-0.23409599 1.73 -2.03211
-0.19202304 1.73 -2.0324202
-0.15513599 1.73 -2.0271802
-0.11993104 1.73 -2.0174398
-0.080645978 1.73 -2.0126801
-0.046554029 1.73 -1.998705
-0.0060369968 1.73 -1.990175
0.031670094 1.73 -1.980091
0.06208992 1.73 -1.9605139
0.094370008 1.73 -1.94245
0.14856005 1.73 -1.940505
0.18208992 1.73 -1.920958
0.23092008 1.73 -1.912909
0.25953007 1.73 -1.8865449
0.29429007 1.73 -1.8627779
0.33577001 1.73 -1.844337
0.36124003 1.73 -1.8143821
0.42411995 1.73 -1.804705
0.48845994 1.73 -1.795076
0.59283996 1.73 -1.801223
0.66785002 1.73 -1.7882769
0.67755008 1.73 -1.743059
0.70520997 1.73 -1.7057769
0.83923995 1.73 -1.710626
-2.6805799 1.73 -2.0355401
-2.6030998 1.73 -2.0429301
-2.5054898 1.73 -2.0328798
-2.4379499 1.73 -2.03935
-2.35884 1.73 -2.03563
-2.29567 1.73 -2.03931
-2.2012501 1.73 -2.01244
-2.16416 1.73 -2.0316601
-2.10675 1.73 -2.0297999
-2.06019 1.73 -2.0373101
-2.0066299 1.73 -2.0339
-1.954451 1.73 -2.0381899
-1.905143 1.73 -2.03439
-1.8588109 1.73 -2.03089
-1.815022 1.73 -2.03038
-1.780741 1.73 -2.03725
-1.736177 1.73 -2.0314898
-1.7029181 1.73 -2.0402799
-1.663595 1.73 -2.0341501
-1.622808 1.73 -2.0257201
-1.586494 1.73 -2.02162
-1.556397 1.73 -2.0281
-1.525267 1.73 -2.03089
-1.491948 1.73 -2.0292201
-1.4574699 1.73 -2.0214901
-1.429249 1.73 -2.0236402
-1.4006181 1.73 -2.02687
-1.370042 1.73 -2.0210099
-1.346179 1.73 -2.03462
-1.335234 1.73 -2.0901198
-1.303775 1.73 -2.0850301
-1.276625 1.73 -2.0904598
-1.25246 1.73 -2.1045101
-1.220161 1.73 -2.0882001
-1.187813 1.73 -2.0668399
-1.162443 1.73 -2.06898
-1.1352299 1.73 -2.0699902
-1.107627 1.73 -2.06884
-1.0819962 1.73 -2.0834
-1.0562778 1.73 -2.06827
-1.0290329 1.73 -2.0643501
-1.001725 1.73 -2.05425
-0.97734833 1.73 -2.05126
-0.95073187 1.73 -2.0495901
-0.92518473 1.73 -2.04533
-0.89765203 1.73 -2.0450001
-0.87455404 1.73 -2.0356801
-0.84757102 1.73 -2.02953
-0.82328999 1.73 -2.0200601
-0.79878801 1.73 -2.01882
-0.77227998 1.73 -2.0232201
-0.74431199 1.73 -2.0243199
-0.717655 1.73 -2.02352
-0.690566 1.73 -2.0261099
-0.662857 1.73 -2.0252399
-0.63489199 1.73 -2.0283599
-0.601614 1.73 -2.03953
-0.57127398 1.73 -2.04146
-0.53761101 1.73 -2.04776
-0.50966102 1.73 -2.0440898
-0.47338897 1.73 -2.0526199
-0.44355905 1.73 -2.04651
-0.41410798 1.73 -2.0415201
-0.37043703 1.73 -2.0549202
-0.33318102 1.73 -2.0587602
-0.29952097 1.73 -2.0545502
-0.27426803 1.73 -2.0388598
-0.23672199 1.73 -2.0362301
-0.19939697 1.73 -2.0334101
-0.16089004 1.73 -2.0293102
-0.12846601 1.73 -2.0181799
-0.084739029 1.73 -2.01706
-0.052461028 1.73 -2.0039701
-0.015611053 1.73 -1.993017
0.027119994 1.73 -1.984864
0.055889964 1.73 -1.964368
0.089030027 1.73 -1.948241
0.14231992 1.73 -1.9469
0.17219996 1.73 -1.923049
0.21561003 1.73 -1.9087701
0.24977005 1.73 -1.8873479
0.29531002 1.73 -1.874725
0.33118999 1.73 -1.850615
0.33754003 1.73 -1.809643
0.41255009 1.73 -1.808363
0.47728002 1.73 -1.79845
0.57018995 1.73 -1.802212
0.66376996 1.73 -1.798594
0.69243991 1.73 -1.761833
0.68001997 1.73 -1.707724
0.81272995 1.73 -1.711198
-2.6786599 1.73 -2.0362601
-2.58354 1.73 -2.03266
-2.50352 1.73 -2.0357599
-2.43524 1.73 -2.0409698
-2.35708 1.73 -2.03546
-2.2956901 1.73 -2.0404801
-2.2056799 1.73 -2.01843
-2.15798 1.73 -2.0273199
-2.1061702 1.73 -2.0315199
-2.0634201 1.73 -2.0433102
-2.0005801 1.73 -2.0310602
-1.955639 1.73 -2.03777
-1.905025 1.73 -2.0348301
-1.860685 1.73 -2.0348601
-1.815118 1.73 -2.0293498
-1.779592 1.73 -2.0374899
-1.739364 1.73 -2.0353599
-1.703351 1.73 -2.0384798
-1.661939 1.73 -2.0334301
-1.627912 1.73 -2.03286
-1.586802 1.73 -2.02087
-1.555606 1.73 -2.02597
-1.527642 1.73 -2.0327702
-1.49307 1.73 -2.0286801
-1.458935 1.73 -2.0202799
-1.4300981 1.73 -2.0240998
-1.400436 1.73 -2.0264001
-1.370343 1.73 -2.0201001
-1.346787 1.73 -2.0336299
-1.33591 1.73 -2.08494
-1.3081419 1.73 -2.08691
-1.2787681 1.73 -2.0901699
-1.252565 1.73 -2.0980799
-1.224733 1.73 -2.0939
-1.1911711 1.73 -2.06549
-1.165879 1.73 -2.0699701
-1.137013 1.73 -2.0700102
-1.112389 1.73 -2.07213
-1.0850104 1.73 -2.0801601
-1.0596627 1.73 -2.0713401
-1.0313697 1.73 -2.06479
-1.0054495 1.73 -2.0517399
-0.98079318 1.73 -2.05107
-0.95382583 1.73 -2.0509901
-0.92862302 1.73 -2.04532
-0.90099961 1.73 -2.04005
-0.87733197 1.73 -2.0339999
-0.850905 1.73 -2.0302701
-0.82770097 1.73 -2.02106
-0.80186301 1.73 -2.0163698
-0.774674 1.73 -2.02298
-0.74768496 1.73 -2.02387
-0.72113699 1.73 -2.0239601
-0.69450295 1.73 -2.0241599
-0.66573095 1.73 -2.0259199
-0.63863301 1.73 -2.02491
-0.60351002 1.73 -2.0405202
-0.57402003 1.73 -2.0420399
-0.54031396 1.73 -2.05249
-0.51236302 1.73 -2.04425
-0.47661501 1.73 -2.05479
-0.44873601 1.73 -2.0450101
-0.42097604 1.73 -2.0359101
-0.377303 1.73 -2.05319
-0.33812201 1.73 -2.0624499
-0.30139601 1.73 -2.0623899
-0.275249 1.73 -2.04533
-0.23924297 1.73 -2.03932
-0.20321804 1.73 -2.0360401
-0.16834098 1.73 -2.02988
-0.12944704 1.73 -2.02493
-0.088573992 1.73 -2.0211701
-0.053093016 1.73 -2.01211
-0.020129025 1.73 -1.997124
0.022179961 1.73 -1.990346
0.055920005 1.73 -1.973946
0.094420075 1.73 -1.960306
0.13966 1.73 -1.9520561
0.17188001 1.73 -1.9311099
0.20585001 1.73 -1.913838
0.25047994 1.73 -1.899696
0.28470993 1.73 -1.878319
0.32438004 1.73 -1.857499
0.3318001 1.73 -1.817131
0.40744996 1.73 -1.817207
0.4569 1.73 -1.798766
0.53183997 1.73 -1.794242
0.63063002 1.73 -1.7947609
0.67833996 1.73 -1.769291
0.67788005 1.73 -1.719789
0.81883991 1.73 -1.7296729
0.87176001 1.73 -1.697498
-2.66535 1.73 -2.0330601
-2.59113 1.73 -2.04071
-2.5019798 1.73 -2.0371099
-2.425 1.73 -2.0388899
-2.3555 1.73 -2.0383501
-2.2922502 1.73 -2.0423598
-2.20243 1.73 -2.0218801
-2.1602101 1.73 -2.0360999
-2.1077299 1.73 -2.03864
-2.0517001 1.73 -2.03633
-1.998224 1.73 -2.03369
-1.949204 1.73 -2.0358701
-1.898872 1.73 -2.0328999
-1.85548 1.73 -2.0320301
-1.81602 1.73 -2.0362802
-1.776161 1.73 -2.03881
-1.726581 1.73 -2.02512
-1.6959031 1.73 -2.03476
-1.658646 1.73 -2.0313802
-1.623047 1.73 -2.03055
-1.580117 1.73 -2.01951
-1.550352 1.73 -2.02426
-1.522622 1.73 -2.03196
-1.487255 1.73 -2.02371
-1.454276 1.73 -2.0218201
-1.4271441 1.73 -2.0280399
-1.3977439 1.73 -2.0261099
-1.3651431 1.73 -2.01614
-1.362129 1.73 -2.08623
-1.3330929 1.73 -2.0873799
-1.30239 1.73 -2.08464
-1.27923 1.73 -2.1057901
-1.247985 1.73 -2.0973301
-1.218282 1.73 -2.0880699
-1.186402 1.73 -2.0673499
-1.159006 1.73 -2.06393
-1.13397 1.73 -2.0693901
-1.106436 1.73 -2.0687099
-1.081212 1.73 -2.0769401
-1.0547954 1.73 -2.0678501
-1.027355 1.73 -2.05565
-1.0020068 1.73 -2.05125
-0.97469622 1.73 -2.0541999
-0.95010012 1.73 -2.0508199
-0.92459661 1.73 -2.0455301
-0.89787102 1.73 -2.0427599
-0.87135601 1.73 -2.0360401
-0.84758401 1.73 -2.0275102
-0.82241297 1.73 -2.02016
-0.79588002 1.73 -2.0218101
-0.76983398 1.73 -2.0249801
-0.74246502 1.73 -2.0269499
-0.71660501 1.73 -2.02297
-0.68941903 1.73 -2.0218401
-0.66064095 1.73 -2.0281899
-0.63480604 1.73 -2.0232899
-0.59762299 1.73 -2.0422802
-0.57014096 1.73 -2.0401802
-0.53517002 1.73 -2.0494099
-0.50731301 1.73 -2.0424299
-0.47075701 1.73 -2.05214
-0.44429898 1.73 -2.0423799
-0.41039395 1.73 -2.04545
-0.36870897 1.73 -2.05913
-0.32793599 1.73 -2.0658002
-0.29938298 1.73 -2.05476
-0.27140898 1.73 -2.0417399
-0.23528099 1.73 -2.0364101
-0.19633502 1.73 -2.03736
-0.15938002 1.73 -2.03001
-0.120682 1.73 -2.0250101
-0.080169022 1.73 -2.0210199
-0.048032999 1.73 -2.00701
-0.01543498 1.73 -1.993194
0.02639997 1.73 -1.9852509
0.052670002 1.73 -1.961957
0.08581996 1.73 -1.9454501
0.14173996 1.73 -1.946421
0.17615008 1.73 -1.927724
0.22212005 1.73 -1.914676
0.25655007 1.73 -1.8942189
0.29478002 1.73 -1.8728271
0.33074999 1.73 -1.850843
0.34437001 1.73 -1.8142819
0.41818988 1.73 -1.812613
0.46915007 1.73 -1.795091
0.56931007 1.73 -1.802299
0.66243994 1.73 -1.7996299
0.68269992 1.73 -1.759105
0.69111001 1.73 -1.7129409
0.82334995 1.73 -1.717662
-2.72999 1.76 -2.0472
-2.6322298 1.76 -2.04298
-2.53971 1.76 -2.04038
-2.46052 1.76 -2.04178
-2.4018199 1.76 -2.05216
-2.31654 1.76 -2.0407901
-2.2184701 1.76 -2.01564
-2.1330299 1.76 -2.04336
-2.07551 1.76 -2.0420101
-2.0250101 1.76 -2.04249
-1.9665079 1.76 -2.03759
-1.922817 1.76 -2.04248
-1.874367 1.76 -2.03743
-1.82672 1.76 -2.03353
-1.7867911 1.76 -2.0364399
-1.749548 1.76 -2.0381999
-1.7115431 1.76 -2.0413699
-1.673844 1.76 -2.03825
-1.6322629 1.76 -2.0304999
-1.598911 1.76 -2.03408
-1.5584819 1.76 -2.0232701
-1.530123 1.76 -2.0320601
-1.499807 1.76 -2.03404
-1.462882 1.76 -2.0223401
-1.432234 1.76 -2.0229301
-1.404246 1.76 -2.02706
-1.372354 1.76 -2.0204401
-1.3547111 1.76 -2.0515299
-1.336723 1.76 -2.0865202
-1.310125 1.76 -2.0905099
-1.2838759 1.76 -2.1051199
-1.254326 1.76 -2.10024
-1.222591 1.76 -2.0910201
-1.193246 1.76 -2.0770502
-1.165537 1.76 -2.07356
-1.137692 1.76 -2.0706801
-1.110747 1.76 -2.07054
-1.0835447 1.76 -2.06899
-1.0555677 1.76 -2.0602901
-1.029335 1.76 -2.0440898
-1.0036587 1.76 -2.0319901
-0.9765864 1.76 -2.03424
-0.95183098 1.76 -2.0506501
-0.92603993 1.76 -2.0453901
-0.89962602 1.76 -2.0424299
-0.874237 1.76 -2.0406799
-0.84867597 1.76 -2.03373
-0.82495898 1.76 -2.02034
-0.79881501 1.76 -2.01577
-0.77331799 1.76 -2.01986
-0.74689996 1.76 -2.0174899
-0.71919799 1.76 -2.0244598
-0.69324797 1.76 -2.0162101
-0.66349399 1.76 -2.0251899
-0.62789702 1.76 -2.0444498
-0.60294199 1.76 -2.0352201
-0.57099199 1.76 -2.0405302
-0.53629899 1.76 -2.05073
-0.50731599 1.76 -2.04686
-0.475034 1.76 -2.0450602
-0.441544 1.76 -2.04686
-0.40994596 1.76 -2.04491
-0.372585 1.76 -2.0506701
-0.336164 1.76 -2.0514798
-0.30001503 1.76 -2.0500798
-0.27215201 1.76 -2.0364599
-0.23917198 1.76 -2.0299599
-0.20077598 1.76 -2.0281501
-0.16237199 1.76 -2.02406
-0.12338096 1.76 -2.02074
-0.090280056 1.76 -2.00758
-0.052624047 1.76 -1.997236
-0.0094720125 1.76 -1.9943171
0.035319924 1.76 -1.987862
0.062530041 1.76 -1.966725
0.097249985 1.76 -1.947536
0.14701998 1.76 -1.943956
0.18005002 1.76 -1.921953
0.21898997 1.76 -1.907161
0.25828004 1.76 -1.888749
0.29824996 1.76 -1.869002
0.33354008 1.76 -1.845986
0.36034 1.76 -1.816366
0.42215002 1.76 -1.8071761
0.48010993 1.76 -1.794252
0.58214998 1.76 -1.799094
0.67629004 1.76 -1.797308
0.67724001 1.76 -1.7462089
0.68469989 1.76 -1.7010591
0.82728004 1.76 -1.708295
-2.68014 1.76 -2.0575299
-2.5568399 1.76 -2.0341201
-2.4780002 1.76 -2.0361099
-2.4102499 1.76 -2.0429301
-2.33234 1.76 -2.03685
-2.2658701 1.76 -2.03598
-2.1781201 1.76 -2.0156898
-2.1530299 1.76 -2.04333
-2.0952702 1.76 -2.04164
-2.0395899 1.76 -2.03789
-1.98656 1.76 -2.0362201
-1.933738 1.76 -2.0330501
-1.887087 1.76 -2.0335
-1.843025 1.76 -2.03354
-1.801448 1.76 -2.0327601
-1.7625511 1.76 -2.03584
-1.7229929 1.76 -2.0325401
-1.689268 1.76 -2.03829
-1.6501031 1.76 -2.0347199
-1.6107931 1.76 -2.0285602
-1.5767519 1.76 -2.0265799
-1.544875 1.76 -2.0308599
-1.513495 1.76 -2.0348601
-1.480158 1.76 -2.0267801
-1.446556 1.76 -2.0216699
-1.419467 1.76 -2.0301199
-1.385203 1.76 -2.0167298
-1.357403 1.76 -2.01809
-1.352524 1.76 -2.0859599
-1.32725 1.76 -2.1003699
-1.2982631 1.76 -2.1046901
-1.272923 1.76 -2.11534
-1.24128 1.76 -2.10113
-1.207498 1.76 -2.07847
-1.1771671 1.76 -2.0676501
-1.149194 1.76 -2.0615699
-1.124719 1.76 -2.07126
-1.0984038 1.76 -2.0677299
-1.0707555 1.76 -2.0661502
-1.0450069 1.76 -2.0572901
-1.018013 1.76 -2.0483499
-0.99265438 1.76 -2.03597
-0.96607262 1.76 -2.0539498
-0.94153273 1.76 -2.04987
-0.91508949 1.76 -2.0460601
-0.88823402 1.76 -2.0415201
-0.86119199 1.76 -2.0390201
-0.83721501 1.76 -2.0223699
-0.81198698 1.76 -2.01753
-0.78533798 1.76 -2.0250101
-0.761132 1.76 -2.0206699
-0.73198003 1.76 -2.0271101
-0.70602 1.76 -2.01998
-0.68001097 1.76 -2.0197201
-0.64778101 1.76 -2.0320501
-0.61567497 1.76 -2.04001
-0.58816695 1.76 -2.0388498
-0.55653697 1.76 -2.0431499
-0.52367902 1.76 -2.0497398
-0.49535799 1.76 -2.0411501
-0.46028304 1.76 -2.04652
-0.42733902 1.76 -2.0485601
-0.39648199 1.76 -2.0473001
-0.355712 1.76 -2.05655
-0.31723499 1.76 -2.0595698
-0.28777897 1.76 -2.04726
-0.25718701 1.76 -2.03719
-0.22585398 1.76 -2.0290799
-0.18500799 1.76 -2.0297599
-0.14962798 1.76 -2.0213299
-0.10705203 1.76 -2.02214
-0.069806993 1.76 -2.01125
-0.037747025 1.76 -1.99753
0.004240036 1.76 -1.9901021
0.042479992 1.76 -1.9806681
0.071519971 1.76 -1.959
0.10000002 1.76 -1.937415
0.15910995 1.76 -1.9386311
0.19218993 1.76 -1.918941
0.23076999 1.76 -1.900888
0.27121997 1.76 -1.882906
0.31255007 1.76 -1.864645
0.33313 1.76 -1.8330331
0.38696992 1.76 -1.819536
0.43417001 1.76 -1.802145
0.50162005 1.76 -1.791609
0.5971899 1.76 -1.7930701
0.67146993 1.76 -1.7799749
0.68138003 1.76 -1.734357
0.78091002 1.76 -1.7274539
0.84360003 1.76 -1.701354
-2.6875801 1.76 -2.0221601
-2.62028 1.76 -2.03846
-2.5294099 1.76 -2.0346401
-2.4597502 1.76 -2.0394301
-2.3881102 1.76 -2.04127
-2.31674 1.76 -2.0409498
-2.25052 1.76 -2.04005
-2.1902699 1.76 -2.03983
-2.1336999 1.76 -2.0422702
-2.0769601 1.76 -2.0394399
-2.0267901 1.76 -2.04145
-1.972926 1.76 -2.0404902
-1.920753 1.76 -2.0373001
-1.870903 1.76 -2.0321701
-1.8292861 1.76 -2.03211
-1.789808 1.76 -2.0357199
-1.752094 1.76 -2.03636
-1.712254 1.76 -2.03513
-1.676937 1.76 -2.03743
-1.638392 1.76 -2.0328898
-1.601728 1.76 -2.03245
-1.5639141 1.76 -2.02456
-1.535095 1.76 -2.0320301
-1.500011 1.76 -2.0258899
-1.466711 1.76 -2.0211501
-1.437495 1.76 -2.02368
-1.408541 1.76 -2.0232
-1.3772349 1.76 -2.0157099
-1.358613 1.76 -2.0451899
-1.3436229 1.76 -2.08777
-1.312711 1.76 -2.0827498
-1.290975 1.76 -2.1027598
-1.2610381 1.76 -2.0991802
-1.230334 1.76 -2.09095
-1.1990269 1.76 -2.07549
-1.1718709 1.76 -2.07003
-1.144338 1.76 -2.0693002
-1.117669 1.76 -2.0690401
-1.0896026 1.76 -2.06775
-1.0629725 1.76 -2.0628901
-1.0375298 1.76 -2.0500798
-1.0105239 1.76 -2.0429499
-0.98551518 1.76 -2.0414
-0.96071482 1.76 -2.0510201
-0.9349798 1.76 -2.04899
-0.9081133 1.76 -2.04371
-0.88283896 1.76 -2.04093
-0.85587901 1.76 -2.0377901
-0.83327198 1.76 -2.0219898
-0.80773497 1.76 -2.0157099
-0.78177702 1.76 -2.02528
-0.75455403 1.76 -2.0260501
-0.726556 1.76 -2.02723
-0.70142299 1.76 -2.02333
-0.67318499 1.76 -2.02386
-0.64320004 1.76 -2.03074
-0.61247003 1.76 -2.0390899
-0.58205998 1.76 -2.04179
-0.54921305 1.76 -2.04845
-0.52158999 1.76 -2.0399899
-0.491561 1.76 -2.0395799
-0.45484495 1.76 -2.04793
-0.42515004 1.76 -2.0430899
-0.38500404 1.76 -2.0519099
-0.347175 1.76 -2.05688
-0.30917603 1.76 -2.0606098
-0.28293002 1.76 -2.04334
-0.24859697 1.76 -2.03778
-0.216362 1.76 -2.02879
-0.17637199 1.76 -2.0302401
-0.13742697 1.76 -2.02513
-0.094043016 1.76 -2.0256901
-0.056517005 1.76 -2.01564
-0.028055012 1.76 -1.997185
0.015439987 1.76 -1.990821
0.051819921 1.76 -1.97763
0.086099982 1.76 -1.961427
0.12764001 1.76 -1.9519811
0.16339004 1.76 -1.9337211
0.20822001 1.76 -1.921874
0.24250996 1.76 -1.899631
0.28769994 1.76 -1.88501
0.32217002 1.76 -1.862735
0.34319997 1.76 -1.828666
0.40521002 1.76 -1.8215511
0.45361996 1.76 -1.803684
0.52213001 1.76 -1.793952
0.62802005 1.76 -1.8000929
0.67620993 1.76 -1.7727411
0.67601001 1.76 -1.722236
0.8285799 1.76 -1.737633
0.89383996 1.76 -1.709844
-2.6772499 1.76 -2.0385499
-2.59251 1.76 -2.0422401
-2.5102801 1.76 -2.0422401
-2.4356799 1.76 -2.04249
-2.3557801 1.76 -2.0379801
-2.2940602 1.76 -2.04091
-2.2039299 1.76 -2.02089
-2.1684399 1.76 -2.04001
-2.1196399 1.76 -2.0475101
-2.0536499 1.76 -2.0354199
-2.0032401 1.76 -2.03719
-1.954903 1.76 -2.03811
-1.9089301 1.76 -2.0387201
-1.8584909 1.76 -2.0305099
-1.820322 1.76 -2.0376601
-1.778823 1.76 -2.0358801
-1.7358871 1.76 -2.03108
-1.700681 1.76 -2.03636
