# .PCD v0.7 - Point Cloud Data file format
VERSION 0.7
FIELDS x y z
SIZE 4 4 4
TYPE F F F
COUNT 1 1 1
WIDTH 1493
HEIGHT 1
VIEWPOINT 0 0 0 1 0 0 0
POINTS 1493
DATA ascii
0.53995657 4.1029119 -1.6563222
0.6018858 4.1048994 -1.6339314
-2.7054024 4.0349445 -2.0930388
-2.6037405 4.0380068 -2.0801678
-2.5405784 4.0397558 -2.0904877
-2.4673591 4.041893 -2.0894771
-2.3902674 4.0441904 -2.0827458
-2.3339026 4.045764 -2.0904286
-2.2596927 4.0480194 -2.078589
-2.2045066 4.0496206 -2.0789495
-2.1466703 4.0513439 -2.0739007
-2.0918422 4.0529594 -2.0712495
-2.0356574 4.0545988 -2.0704839
-1.9912313 4.0558662 -2.0732701
-1.9422442 4.0573378 -2.067647
-1.8988184 4.0586052 -2.0670576
-1.853762 4.059967 -2.0606947
-1.8184369 4.0609522 -2.0657539
-1.7765496 4.062191 -2.0631032
-1.7408586 4.0632257 -2.0635116
-1.7066638 4.064187 -2.0673795
-1.6715019 4.0652323 -2.0645905
-1.6344194 4.0663576 -2.0588813
-1.5961602 4.0675411 -2.0503812
-1.5636165 4.0685158 -2.0469089
-1.5344644 4.069356 -2.0477548
-1.4992273 4.0704784 -2.0360608
-1.4702878 4.0712957 -2.0388625
-1.4413915 4.0721207 -2.0406148
-1.4133968 4.0729065 -2.0439608
-1.4063444 4.0725603 -2.1097417
-1.3783715 4.0733051 -2.1179194
-1.3514225 4.0740042 -2.1279144
-1.3206053 4.0749397 -2.1231856
-1.2903945 4.0758982 -2.1135211
-1.2605453 4.0768337 -2.105376
-1.2297144 4.0778837 -2.0870523
-1.2028902 4.0787048 -2.0821559
-1.1746547 4.0795374 -2.0807443
-1.1483977 4.0803967 -2.0692401
-1.1202219 4.0813799 -2.049674
-1.0939569 4.0822735 -2.0341182
-1.0693152 4.0831232 -2.0181737
-1.043766 4.0838432 -2.0208519
-1.0190079 4.0846901 -2.0056548
-0.99558783 4.0853386 -2.0094979
-0.9691968 4.0861187 -2.0079432
-0.94393063 4.0868874 -2.0038264
-0.91947699 4.087575 -2.0065527
-0.89616656 4.0883417 -1.995945
-0.86873913 4.0890818 -2.0027454
-0.84800148 4.0898561 -1.9822233
-0.81720257 4.0905743 -2.0033994
-0.78648114 4.0913906 -2.0125272
-0.76085329 4.0921745 -2.0078814
-0.73394084 4.0929403 -2.0097945
-0.70547819 4.0937643 -2.0102377
-0.6800909 4.0945663 -2.0025868
-0.64486003 4.0954628 -2.0177715
-0.6081388 4.0964212 -2.0307374
-0.57576108 4.0973167 -2.0361624
-0.54745603 4.0982141 -2.0272264
-0.51605916 4.099144 -2.0251639
-0.48725533 4.1000462 -2.0174356
-0.45606709 4.1010075 -2.010927
-0.42438507 4.1019554 -2.0076966
-0.39575148 4.10289 -1.9954214
-0.3602457 4.1039371 -1.9935839
-0.33115983 4.1048622 -1.9841089
-0.29669452 4.105917 -1.9777725
-0.2595799 4.107029 -1.973773
-0.22212172 4.1081572 -1.9691353
-0.18980885 4.1092148 -1.9549272
-0.15680146 4.1102648 -1.9441276
-0.14236164 4.1109447 -1.9129939
-0.11183357 4.111968 -1.896785
-0.052565813 4.113616 -1.9057291
-0.015470266 4.1148119 -1.891675
0.034564734 4.116292 -1.8884928
0.077032328 4.1176405 -1.8749318
0.10811806 4.1187134 -1.8546684
0.1477077 4.1200132 -1.8368955
0.1961751 4.1215219 -1.8248868
0.23022318 4.1227102 -1.8012416
0.26932859 4.1240158 -1.7809803
0.34119797 4.1261463 -1.776073
0.34586811 4.1266327 -1.7342114
0.44919777 4.1295986 -1.7387135
0.47557592 4.1306543 -1.7041657
0.51983356 4.1321545 -1.6785941
0.56502008 4.1337185 -1.6486926
0.61663055 4.1354418 -1.6220438
-2.6954455 4.0352898 -2.0863423
-2.6037405 4.0380068 -2.0801678
-2.5173857 4.0405655 -2.0743504
-2.4597034 4.0421553 -2.0846601
-2.389308 4.0442247 -2.0819411
-2.3225145 4.0461826 -2.0799141
-2.2643034 4.0478506 -2.0828083
-2.1874371 4.0502405 -2.064239
-2.1404672 4.0515528 -2.0705411
-2.090971 4.0529776 -2.0720675
-2.0363622 4.0545864 -2.0695217
-1.9935907 4.05581 -2.0719299
-1.9438721 4.0572929 -2.0673084
-1.8996725 4.0585909 -2.0657692
-1.8541909 4.0599604 -2.0600753
-1.8178701 4.0609751 -2.064929
-1.7778544 4.0621634 -2.0619562
-1.7410424 4.0632286 -2.062516
-1.7059717 4.0642443 -2.0628605
-1.6715019 4.0652323 -2.0645905
-1.6359119 4.0663261 -2.057539
-1.5976939 4.0675001 -2.0499203
-1.5682292 4.0683355 -2.0524988
-1.5317905 4.069499 -2.0399237
-1.5009871 4.0703964 -2.0396671
-1.4700282 4.0713377 -2.0346947
-1.441432 4.0721264 -2.0398159
-1.414022 4.072897 -2.0429866
-1.4082894 4.072504 -2.1097112
-1.3814943 4.0731974 -2.1199398
-1.3539281 4.0739336 -2.1275783
-1.3230424 4.074873 -2.1226778
-1.292836 4.0758009 -2.1166341
-1.2638037 4.076746 -2.104609
-1.2324333 4.0777845 -2.0894628
-1.205559 4.0786037 -2.0848849
-1.1784444 4.0794315 -2.0801907
-1.1507034 4.0803328 -2.0688586
-1.1230607 4.0812998 -2.0493264
-1.0970383 4.0821877 -2.0335965
-1.0706444 4.0830612 -2.0209486
-1.0472715 4.0837212 -2.0232522
-1.0208652 4.0846291 -2.0065327
-0.99752688 4.0852823 -2.0094273
-0.96950579 4.086092 -2.0099916
-0.94478273 4.0868635 -2.0036981
-0.91989732 4.0875559 -2.0073838
-0.89729428 4.0883093 -1.9959097
-0.86917543 4.0890636 -2.0033569
-0.84996343 4.0898275 -1.9788442
-0.8174746 4.0905657 -2.0034761
-0.78809452 4.0913134 -2.0161498
-0.76167321 4.0921478 -2.0081522
-0.73421431 4.0929317 -2.0098915
-0.7060256 4.0937462 -2.0104516
-0.68104053 4.0945578 -2.0002801
-0.64382982 4.0954666 -2.0208662
-0.60883284 4.0963888 -2.032166
-0.57508755 4.0973368 -2.0361052
-0.54990149 4.0981541 -2.0259686
-0.51784039 4.0991077 -2.0232887
-0.48644423 4.1000366 -2.0213163
-0.45664859 4.1009674 -2.0136626
-0.42602491 4.1018982 -2.0087888
-0.39778471 4.1028214 -1.9965336
-0.36350679 4.1038275 -1.9953578
-0.33265138 4.1048298 -1.9827344
-0.29980564 4.1058407 -1.9761167
-0.26057577 4.106987 -1.9752841
-0.2237699 4.1081018 -1.9699452
-0.18836164 4.1092129 -1.9600978
-0.154562 4.1102896 -1.9489498
-0.14341903 4.1109018 -1.9144583
-0.1163125 4.1118555 -1.8946478
-0.063084364 4.1133614 -1.8995435
-0.017021656 4.1147442 -1.8943355
0.032685995 4.1162214 -1.8904822
0.075294018 4.1175632 -1.8780935
0.1064136 4.1186333 -1.858367
0.14499974 4.1199045 -1.8404646
0.18931627 4.1213226 -1.8249397
0.2261138 4.1225586 -1.8051379
0.27241039 4.1240501 -1.7876718
0.3408432 4.1260958 -1.7809255
0.34274149 4.1265182 -1.7370512
0.4474659 4.1295033 -1.7440715
0.47514248 4.1305876 -1.7106359
0.51729965 4.1320467 -1.6826911
0.55139112 4.1333065 -1.6506174
0.6136651 4.1353121 -1.6272836
0.73235989 4.1388197 -1.6203721
-2.7537889 4.0335932 -2.0864525
-2.6755371 4.0358171 -2.0925357
-2.5778804 4.0387583 -2.0802374
-2.5008388 4.0409985 -2.0800993
-2.4366856 4.042841 -2.0827017
-2.3669012 4.0448923 -2.0799379
-2.3024099 4.0467815 -2.0782003
-2.2461276 4.0483961 -2.0807533
-2.1802437 4.050396 -2.0705872
-2.1281915 4.0518875 -2.0731282
-2.0700417 4.0536575 -2.0635703
-2.0238111 4.0549479 -2.069941
-1.9764138 4.0563221 -2.0703707
-1.9322855 4.057622 -2.0682428
-1.8859344 4.0590258 -2.0614567
-1.843351 4.0602741 -2.0601788
-1.8076959 4.0612707 -2.064919
-1.7681077 4.0624514 -2.0614171
-1.7290511 4.063611 -2.0584283
-1.6979592 4.0644655 -2.064326
-1.6599212 4.065609 -2.059803
-1.6253765 4.0666618 -2.0539789
-1.5908704 4.0677013 -2.0496061
-1.5579305 4.0686598 -2.0494847
-1.5242534 4.0696964 -2.042582
-1.4934111 4.0706253 -2.0386329
-1.4636517 4.0715017 -2.0372925
-1.4350734 4.0723133 -2.0395832
-1.4112279 4.0729437 -2.0469966
-1.4048243 4.0725727 -2.113564
-1.3766918 4.0733242 -2.1214476
-1.3496432 4.0740509 -2.1285892
-1.3206561 4.0749359 -2.1234269
-1.2890346 4.0759726 -2.1094449
-1.258996 4.0769138 -2.101315
-1.2319241 4.0777359 -2.0971022
-1.2034469 4.0786676 -2.0846107
-1.1761472 4.0794611 -2.0846334
-1.1476634 4.0803967 -2.0717819
-1.1213682 4.0813446 -2.0498834
-1.0942352 4.0822697 -2.0336151
-1.0705793 4.0830336 -2.0244479
-1.0459914 4.0837793 -2.0206988
-1.0220413 4.0846043 -2.005362
-0.99551272 4.085309 -2.013257
-0.96862006 4.086134 -2.0081284
-0.94487596 4.0868502 -2.0049808
-0.92060733 4.0875978 -1.9998965
-0.8940928 4.0883732 -1.9993598
-0.86760116 4.0890827 -2.0065875
-0.84738326 4.0898819 -1.981297
-0.81637216 4.0906172 -2.0010972
-0.78914428 4.0913458 -2.0086341
-0.760741 4.0921516 -2.0109994
-0.73412061 4.0929098 -2.01278
-0.70664477 4.093749 -2.0080066
-0.6787262 4.0945578 -2.0082438
-0.64493752 4.0954304 -2.0213544
-0.61153889 4.0963345 -2.029294
-0.57844305 4.0972605 -2.0335898
-0.54718852 4.0981779 -2.0324512
-0.51750541 4.0991068 -2.0245407
-0.48648858 4.1000261 -2.0225077
-0.4570663 4.1009502 -2.0142136
-0.42836928 4.10186 -2.0052376
-0.39640856 4.1028156 -2.0019803
-0.36153531 4.1038532 -1.9991887
-0.32879448 4.1048584 -1.9927101
-0.29840279 4.1058388 -1.981096
-0.26550698 4.1068611 -1.9732482
-0.22441816 4.1080666 -1.9718695
-0.18932056 4.1091719 -1.9616897
-0.15540361 4.1102457 -1.95119
-0.14441037 4.1108646 -1.9154902
-0.1151216 4.1118488 -1.899642
-0.062173843 4.1133652 -1.9023061
-0.01992178 4.1146469 -1.895874
0.026985168 4.1160555 -1.8904402
0.064036369 4.1172781 -1.8731041
0.10016227 4.1184683 -1.8563631
0.14253068 4.1198101 -1.8432117
0.18731546 4.1212425 -1.8275928
0.22522163 4.1225033 -1.8085275
0.26444006 4.1238155 -1.7880073
0.3387332 4.1260014 -1.7848246
0.33517933 4.1262894 -1.7380977
0.4369216 4.1291914 -1.7446499
0.47243643 4.1304588 -1.7166069
0.50767136 4.1317539 -1.6842837
0.5492692 4.1331997 -1.6559854
0.60378218 4.1349936 -1.6310117
-2.6703827 4.0360336 -2.0845714
-2.589344 4.0383968 -2.0835512
-2.5105433 4.0406952 -2.082608
-2.4463634 4.0425205 -2.0874104
-2.3695111 4.0448236 -2.0791545
-2.315033 4.0463505 -2.0858052
-2.2477107 4.0483665 -2.0786932
-2.1888273 4.0501146 -2.0743077
-2.1264324 4.0519972 -2.0661113
-2.0774012 4.053421 -2.0662789
-2.0279922 4.0548401 -2.0682573
-1.9811156 4.0562077 -2.06774
-1.9363605 4.0575256 -2.0656362
-1.8927374 4.0588036 -2.0644612
-1.8497174 4.0600758 -2.0617719
-1.8139846 4.061079 -2.0660803
-1.7728133 4.0623274 -2.0598667
-1.7365134 4.0633783 -2.0603099
-1.7029994 4.0643234 -2.0637245
-1.6677763 4.0653687 -2.061214
-1.6298347 4.0665188 -2.0556231
-1.5978632 4.0674677 -2.0531657
-1.5637445 4.0684776 -2.0509737
-1.5329359 4.0694036 -2.0473154
-1.4973519 4.0705242 -2.0370831
-1.4694452 4.0713472 -2.0357099
-1.4410682 4.0721226 -2.0415168
-1.4136164 4.0729361 -2.0397053
-1.4061379 4.0725718 -2.109026
-1.3809605 4.0731983 -2.1216369
-1.3530874 4.0739651 -2.1267564
-1.3222802 4.0749006 -2.1220679
-1.2927649 4.0758352 -2.1128311
-1.2628188 4.0767288 -2.1100755
-1.2343044 4.0776691 -2.0967829
-1.2056124 4.0786219 -2.0826154
-1.1773331 4.0794573 -2.0810328
-1.1509187 4.0802956 -2.0725954
-1.1242237 4.0812597 -2.0500464
-1.097369 4.0821218 -2.0403473
-1.0733569 4.0829525 -2.0244989
-1.0469379 4.0837746 -2.0179822
-1.0231316 4.0845718 -2.00543
-0.99800849 4.0852365 -2.0132408
-0.97221589 4.086009 -2.010561
-0.94687653 4.0868282 -2.0007198
-0.92321301 4.0875273 -1.9993219
-0.89607573 4.0882673 -2.0050945
-0.87125731 4.088974 -2.006881
-0.85066533 4.0897732 -1.9828787
-0.82003212 4.0905066 -2.001581
-0.79020452 4.0912857 -2.0120823
-0.76538301 4.0920343 -2.0088272
-0.73585701 4.0928783 -2.0104735
-0.70793653 4.0936918 -2.0103705
-0.68047166 4.0945101 -2.0078781
-0.64669967 4.0953751 -2.0218499
-0.61438251 4.0962849 -2.0253756
-0.58139873 4.0971947 -2.0311546
-0.55268526 4.0980606 -2.0274401
-0.52452517 4.098938 -2.0204487
-0.49346089 4.0998373 -2.0208151
-0.46287942 4.1007977 -2.0122514
-0.43630815 4.1016703 -2.000299
-0.40155792 4.102685 -1.9997711
-0.36535501 4.1037235 -2.0013568
-0.33472776 4.1046906 -1.9922216
-0.3035419 4.1056795 -1.982358
-0.26814795 4.1067657 -1.9754925
-0.23157048 4.107873 -1.9702127
-0.20261598 4.1088476 -1.954284
-0.15997052 4.1100788 -1.955333
-0.14888692 4.1106958 -1.92012
-0.1215992 4.1116447 -1.9015088
-0.067148924 4.1131821 -1.9068439
-0.019299269 4.114603 -1.9033256
0.017783165 4.1157961 -1.8895588
0.063943624 4.1172009 -1.8819335
0.10174155 4.1184425 -1.8648796
0.13914609 4.1196775 -1.8472936
0.17894125 4.1209908 -1.828578
0.21600246 4.122242 -1.8077919
0.26144075 4.1236897 -1.7926776
0.33485508 4.1258554 -1.788774
0.33921528 4.1263399 -1.746093
0.41792917 4.1286573 -1.7425683
0.4688406 4.1303339 -1.7190776
0.49850655 4.1314726 -1.6860211
0.55507278 4.1332922 -1.6650496
0.59915018 4.13482 -1.6355906
-2.6918693 4.0355415 -2.0687551
-2.6195095 4.037591 -2.075129
-2.5498433 4.0395632 -2.0813515
-2.4759076 4.0417156 -2.0809727
-2.4045596 4.0438118 -2.0783496
-2.3372173 4.0457821 -2.076659
-2.2732573 4.0476694 -2.073324
-2.2182889 4.0492468 -2.0757308
-2.1601655 4.0509701 -2.0717249
-2.1093895 4.0524359 -2.0728581
-2.0524988 4.0541573 -2.0647523
-2.0018702 4.055625 -2.0651793
-1.9605213 4.0568018 -2.068264
-1.9130363 4.058217 -2.0639896
-1.8673519 4.0595989 -2.0575609
-1.8288093 4.0607061 -2.0591569
-1.7898219 4.0618362 -2.0594611
-1.7586892 4.0626669 -2.0682986
-1.7189128 4.0638885 -2.0604501
-1.6830988 4.0649424 -2.0589848
-1.64856 4.0659666 -2.0565419
-1.6097672 4.0671663 -2.0478582
-1.577811 4.0681143 -2.0455711
-1.5429864 4.069171 -2.0402498
-1.5132883 4.0700493 -2.0384707
-1.481535 4.0710039 -2.0346384
-1.4533052 4.0718069 -2.0367479
-1.4286647 4.0724554 -2.0448613
-1.41255 4.0726357 -2.0792603
-1.3948174 4.0728006 -2.1210306
-1.3673701 4.0735712 -2.1243305
-1.3383014 4.0743952 -2.1267986
-1.3097844 4.075242 -2.1246097
-1.2771909 4.0763798 -2.1018901
-1.2479603 4.0773239 -2.09059
-1.2202737 4.0781488 -2.0882318
-1.1898444 4.0791636 -2.0726497
-1.1651244 4.0798607 -2.0751891
-1.1380734 4.0807238 -2.0660052
-1.1109259 4.0817232 -2.0409038
-1.0852923 4.0825815 -2.0273647
-1.059557 4.0833807 -2.0211854
-1.0353606 4.0841179 -2.0171859
-1.01161 4.0848761 -2.0091169
-0.98631096 4.085618 -2.0083404
-0.95976567 4.0864105 -2.0057616
-0.93574357 4.0871038 -2.0063982
-0.90994883 4.0878401 -2.0079296
-0.88597584 4.0885649 -2.0046163
-0.86062336 4.089303 -2.0045087
-0.83684182 4.0901308 -1.988174
-0.80573177 4.0908184 -2.0139694
-0.78057575 4.09163 -2.0044539
-0.75303125 4.0923882 -2.0095019
-0.72580934 4.0931749 -2.010067
-0.69445658 4.0940237 -2.0175083
-0.66343355 4.0948629 -2.0249181
-0.63380241 4.0957127 -2.0262716
-0.59598875 4.0967112 -2.0382595
-0.56694961 4.0975962 -2.0334063
-0.53536963 4.098505 -2.0343699
-0.50568128 4.0994225 -2.0278995
-0.47721195 4.1003075 -2.0210402
-0.45422673 4.1011324 -2.0023673
-0.4165616 4.1021833 -2.0075867
-0.38017917 4.1032343 -2.0083077
-0.34984851 4.1042023 -1.9980097
-0.32032585 4.1051569 -1.9864419
-0.28833199 4.1061468 -1.9793227
-0.24872303 4.1073151 -1.9772871
-0.2164886 4.1083431 -1.9663973
-0.17532516 4.1095514 -1.9649572
-0.14528322 4.1105719 -1.9474633
-0.13726068 4.1111231 -1.9094524
-0.091941595 4.1124525 -1.9079704
-0.044267654 4.1138506 -1.9064519
-0.0084671974 4.1150208 -1.8910277
0.048092604 4.1166468 -1.8931129
0.085183144 4.1178637 -1.8765321
0.12236166 4.1190968 -1.8583286
0.1612103 4.1203747 -1.8405356
0.20054102 4.1216793 -1.8212581
0.23709822 4.1229076 -1.801446
0.29056549 4.1245823 -1.7871218
0.33778143 4.1261044 -1.7692192
0.36478329 4.1271477 -1.7383366
0.4598546 4.1298962 -1.7401645
0.4788065 4.1307573 -1.703047
0.54645109 4.1328707 -1.6855385
0.57428503 4.1339798 -1.6496842
0.65850019 4.1365633 -1.6334031
-2.7149086 4.0647936 -2.0798965
-2.6225753 4.067523 -2.0744262
-2.5517836 4.0695391 -2.0793195
-2.4710264 4.071928 -2.0743551
-2.4055252 4.0738106 -2.0768926
-2.3378305 4.0757942 -2.0749125
-2.2749844 4.077631 -2.0737572
-2.218399 4.0792532 -2.0764227
-2.1609254 4.0809565 -2.072443
-2.100471 4.0827894 -2.0634463
-2.051785 4.0841961 -2.0644131
-2.0021262 4.0856323 -2.0652947
-1.9531854 4.0871067 -2.0590928
-1.9055506 4.0885181 -2.0558548
-1.8664725 4.0896425 -2.0572371
-1.8281012 4.0907383 -2.0595977
-1.7890337 4.0918932 -2.057219
-1.7513564 4.0929813 -2.0580668
-1.7176108 4.0939484 -2.0596757
-1.6801186 4.0950432 -2.0591075
-1.6416228 4.0962296 -2.0510316
-1.605484 4.0973549 -2.0420256
-1.5729184 4.0982866 -2.0438247
-1.5396221 4.0993052 -2.0377221
-1.5085196 4.1002359 -2.0345466
-1.4797184 4.1010733 -2.0345807
-1.4486911 4.1020021 -2.0312474
-1.4237032 4.1026583 -2.0396519
-1.4146125 4.1023636 -2.1062803
-1.3910792 4.1029034 -2.1235647
-1.3626184 4.1037035 -2.126729
-1.3317213 4.1046524 -2.1207578
-1.3000882 4.1056538 -2.1108665
-1.2723773 4.1064777 -2.1086781
-1.2413731 4.1074495 -2.1002336
-1.213439 4.1083546 -2.0891366
-1.1843278 4.1092453 -2.0837712
-1.1566603 4.1102314 -2.0620377
-1.1311469 4.1109962 -2.059335
-1.1044071 4.1119556 -2.0375249
-1.076967 4.1128349 -2.027791
-1.0525019 4.1136246 -2.0184231
-1.0282061 4.114377 -2.0129709
-1.0027704 4.1151123 -2.0133312
-0.97744489 4.1158638 -2.0115638
-0.95252919 4.1166477 -2.004415
-0.9292655 4.1174021 -1.9951069
-0.90340686 4.1180792 -2.0040302
-0.8758781 4.118865 -2.0056376
-0.85152698 4.1195936 -2.0031848
-0.8259232 4.1203423 -2.0026608
-0.79574442 4.1211262 -2.0137033
-0.7698288 4.121933 -2.0073392
-0.73906732 4.1227369 -2.018157
-0.71284389 4.1235399 -2.0132155
-0.68011045 4.124403 -2.0238228
-0.64941096 4.125268 -2.0269895
-0.61758685 4.1261244 -2.0352492
-0.58834791 4.1270094 -2.0310512
-0.55356789 4.1279917 -2.0344739
-0.52539587 4.1288872 -2.0252714
-0.49521232 4.1297855 -2.0227394
-0.46888638 4.1306438 -2.0115736
-0.43210411 4.1316957 -2.0136545
-0.39961648 4.1326714 -2.0099237
-0.36228228 4.1337519 -2.0104802
-0.33178997 4.1347237 -2.000258
-0.30453992 4.1356468 -1.9846351
-0.2616837 4.1368618 -1.9882035
-0.22645879 4.1379557 -1.9798629
-0.18370152 4.139225 -1.9767609
-0.16322494 4.1400394 -1.9505687
-0.1351676 4.1409931 -1.9340518
-0.096887589 4.1421947 -1.9234314
-0.053520441 4.1435013 -1.9178669
-0.01703763 4.14468 -1.9037209
0.032444477 4.1461391 -1.901207
0.07028532 4.147378 -1.8846722
0.10755706 4.1486092 -1.8669734
0.14625835 4.1498766 -1.8500426
0.18712473 4.1512003 -1.8337116
0.21664476 4.1522818 -1.8070102
0.26811695 4.1538963 -1.7928681
0.33505344 4.1558914 -1.7870812
0.35615396 4.156806 -1.7510779
0.42782068 4.1589565 -1.7429626
0.46110249 4.160182 -1.7120941
0.54950905 4.1628132 -1.7048025
0.64489746 4.1656618 -1.6956377
0.70278502 4.1675749 -1.6681607
0.74142504 4.1690025 -1.6317801
-2.7289071 4.0643902 -2.0795336
-2.6448171 4.0668259 -2.0805061
-2.562952 4.0692081 -2.0801249
-2.4963028 4.0711117 -2.0841336
-2.4107804 4.0736923 -2.0727956
-2.3489482 4.0754614 -2.0761373
-2.2963171 4.0769339 -2.0829048
-2.2239687 4.0791502 -2.0694327
-2.1601682 4.0810671 -2.0618505
-2.1097589 4.0825157 -2.0638936
-2.0577645 4.0840597 -2.0599642
-2.0073566 4.0855131 -2.0614371
-1.9579315 4.0869989 -2.0555027
-1.915364 4.0882416 -2.0548453
-1.8746111 4.0894041 -2.057425
-1.8365819 4.0904922 -2.0594344
-1.7961371 4.091691 -2.0566802
-1.758255 4.0927849 -2.0575531
-1.7243516 4.0937614 -2.0585473
-1.6861849 4.094883 -2.057122
-1.6502407 4.0959702 -2.0521021
-1.6120241 4.0971622 -2.042383
-1.5807006 4.0980635 -2.0434933
-1.5478046 4.0990591 -2.0387611
-1.5151722 4.1000404 -2.0347867
-1.4854016 4.1009169 -2.0334756
-1.4571838 4.1017189 -2.0356658
-1.4306965 4.1024675 -2.0381498
-1.4137287 4.1026497 -2.0752382
-1.397965 4.1026926 -2.1248012
-1.3701236 4.1034737 -2.128231
-1.3418248 4.1042786 -2.1302989
-1.307749 4.1054249 -2.1116724
-1.2802241 4.1062298 -2.1111593
-1.2493904 4.1072283 -2.0988379
-1.2218604 4.1080866 -2.0919223
-1.1935582 4.1089211 -2.0904589
-1.1644161 4.110013 -2.0612755
-1.13782 4.1107922 -2.0605559
-1.1120586 4.1117115 -2.0401514
-1.0850544 4.1126099 -2.0266173
-1.0598142 4.1133699 -2.0234215
-1.0353911 4.1141291 -2.0176358
-1.0106063 4.1149235 -2.0087199
-0.98628521 4.1156263 -2.009249
-0.96075225 4.1164207 -2.0029948
-0.9365952 4.1171513 -1.9995618
-0.91096425 4.1178961 -1.9995751
-0.88527369 4.1186266 -2.0014863
-0.86017275 4.1193743 -1.9993193
-0.83308148 4.1201115 -2.0053043
-0.80502486 4.1208496 -2.0145605
-0.77893472 4.1216221 -2.0128236
-0.75093126 4.1224108 -2.0158794
-0.72488713 4.1232443 -2.006741
-0.69476748 4.1240702 -2.0127037
-0.66090751 4.1249275 -2.0278037
-0.62909675 4.1258144 -2.0322423
-0.5949986 4.1267633 -2.037333
-0.56902313 4.1275864 -2.0292168
-0.53685641 4.1285295 -2.0281351
-0.5030477 4.129488 -2.0310421
-0.47631168 4.1303482 -2.021096
-0.44389319 4.1313391 -2.0153363
-0.41440368 4.1322556 -2.0082109
-0.37695169 4.1333218 -2.010855
-0.34304166 4.1343699 -2.0034463
-0.31643081 4.1352701 -1.9883418
-0.28278065 4.1363058 -1.9814022
-0.2446146 4.1374531 -1.976855
-0.20443702 4.1386404 -1.9744859
-0.1666677 4.1397772 -1.9699316
-0.13978553 4.1407385 -1.9483974
-0.12169719 4.1414871 -1.9217966
-0.081994057 4.1427145 -1.9130211
-0.032262325 4.1441746 -1.9112797
-0.0017926693 4.1452093 -1.8935001
0.0548594 4.1468573 -1.8933098
0.086910248 4.1479568 -1.873255
0.12309217 4.1491461 -1.8567383
0.16837692 4.1505804 -1.8426886
0.19994783 4.1516991 -1.8187304
0.24418688 4.153121 -1.8025162
0.29225588 4.1546698 -1.7843506
0.34562254 4.1563444 -1.7696028
0.3726387 4.1573906 -1.7384858
0.44495344 4.1595707 -1.729152
0.48738003 4.1610279 -1.7023487
0.61473417 4.1646633 -1.7101822
0.66317606 4.1663265 -1.6797462
0.70142174 4.1677246 -1.6455281
-2.747149 4.0638838 -2.0766988
-2.6606083 4.0663967 -2.0769281
-2.579896 4.068737 -2.0776067
-2.5031428 4.070981 -2.0759759
-2.4382505 4.0728292 -2.0804896
-2.3678966 4.0749006 -2.0773215
-2.2981105 4.0769968 -2.0691965
-2.2368138 4.0787783 -2.0692105
-2.1826267 4.0803461 -2.0699968
-2.1223016 4.0821686 -2.0618134
-2.0728097 4.083602 -2.0623994
-2.0215926 4.0850697 -2.0649219
-1.9753098 4.086422 -2.0641294
-1.9323605 4.0876808 -2.0627418
-1.8822762 4.089201 -2.0551102
-1.8462347 4.0902157 -2.0589907
-1.8050878 4.091424 -2.0575593
-1.771688 4.0923672 -2.060817
-1.7328691 4.0935163 -2.0583448
-1.6984015 4.0944996 -2.0605052
-1.6602507 4.0956554 -2.0549388
-1.622432 4.0968523 -2.0432591
-1.5916035 4.0977316 -2.0452123
-1.5602832 4.0986462 -2.044682
-1.5255597 4.0997028 -2.0391235
-1.4946077 4.1006451 -2.033921
-1.4657674 4.10149 -2.0331042
-1.4388742 4.1021976 -2.0420198
-1.4147038 4.102828 -2.0506253
-1.4061842 4.1025124 -2.1178288
-1.3794355 4.1031857 -2.1302495
-1.3506517 4.1040411 -2.1280336
-1.318495 4.1050711 -2.1166484
-1.2905726 4.1059093 -2.1133943
-1.2602935 4.1068487 -2.1063085
-1.2311568 4.1077986 -2.0940304
-1.2030799 4.1086712 -2.0872512
-1.1758339 4.1095457 -2.0774622
-1.1489246 4.1104031 -2.0685019
-1.1208076 4.1114569 -2.040175
-1.0948045 4.1123104 -2.0286169
-1.0694594 4.11306 -2.0269191
-1.0449595 4.1138296 -2.0201111
-1.0214467 4.1146231 -2.0070164
-0.99581146 4.1153116 -2.0137136
-0.96982479 4.1161156 -2.0079181
-0.94551086 4.116847 -2.004946
-0.9209435 4.11763 -1.9967599
-0.89483213 4.1183348 -2.0031509
-0.86982584 4.1191034 -1.9981778
-0.84395576 4.1198006 -2.0046921
-0.81583571 4.1205587 -2.0118558
-0.79084969 4.121316 -2.0080864
-0.760144 4.1221285 -2.0176051
-0.73364329 4.1229343 -2.0133469
-0.70661783 4.1237497 -2.0097854
-0.67326927 4.1246204 -2.0215774
-0.64237857 4.1254454 -2.030201
-0.6085701 4.1263771 -2.0362992
-0.58031416 4.1272478 -2.0304356
-0.54677749 4.128212 -2.0317495
-0.52046585 4.1290436 -2.023665
-0.48667812 4.1300344 -2.0226414
-0.46073461 4.1308889 -2.0106149
-0.42593098 4.1319017 -2.0104959
-0.3925693 4.132884 -2.0090032
-0.36137247 4.1338587 -2.0008538
-0.32634473 4.1349115 -1.9967077
-0.29611301 4.1358995 -1.9836106
-0.25902772 4.1369858 -1.9826717
-0.22228861 4.138114 -1.9754744
-0.18790317 4.139184 -1.9669952
-0.14837694 4.1404047 -1.9583981
-0.13433123 4.1410694 -1.9277945
-0.087646484 4.1424294 -1.9274187
-0.050733328 4.1436129 -1.9143038
-0.011382341 4.1448421 -1.9039614
0.040946722 4.146389 -1.9009454
0.073350906 4.1474972 -1.8810177
0.11041069 4.1487045 -1.8655581
0.15395236 4.1501017 -1.8498359
0.19235611 4.1513786 -1.830663
0.21754026 4.1523485 -1.8021746
0.26506948 4.1538563 -1.7871549
0.33675623 4.155962 -1.7844777
0.35757303 4.1568699 -1.7483146
0.42770338 4.1589746 -1.7403469
0.46313381 4.160264 -1.709439
0.56951475 4.1633501 -1.710124
0.6458807 4.1657057 -1.6938362
0.71341228 4.1678648 -1.6704087
0.74278259 4.1690435 -1.6316845
-2.6844335 4.0656481 -2.0836592
-2.5949144 4.0683031 -2.0772405
-2.5088024 4.0708628 -2.0705485
-2.4450788 4.0726757 -2.0751023
-2.3747678 4.0747375 -2.0729856
-2.3100805 4.0766392 -2.0703225
-2.2532525 4.0782614 -2.0738721
-2.1829863 4.0804205 -2.0599329
-2.1321545 4.0818901 -2.060895
-2.0824318 4.0833235 -2.062295
-2.0362368 4.0846128 -2.0686469
-1.9858745 4.086112 -2.0643892
-1.9408273 4.0874357 -2.0626879
-1.8941711 4.0888338 -2.0576849
-1.8557719 4.0899401 -2.0588841
-1.8163435 4.0910721 -2.0604577
-1.778878 4.0921497 -2.061811
-1.7405705 4.0932951 -2.0580115
-1.7074561 4.0942221 -2.0621767
-1.6666539 4.0954962 -2.0517216
-1.6313162 4.0965548 -2.0479574
-1.597229 4.0975685 -2.0452559
-1.5660756 4.0984907 -2.0431395
-1.5330298 4.0994825 -2.0394742
-1.5035498 4.1003408 -2.0392413
-1.4721477 4.101305 -2.0331471
-1.4443111 4.1020842 -2.036737
-1.4191339 4.1027727 -2.0418959
-1.4138498 4.1023149 -2.1148438
-1.3883829 4.1029434 -2.1281674
-1.3575525 4.1038475 -2.1271796
-1.3273437 4.1048012 -2.1181149
-1.2975602 4.1057158 -2.1123524
-1.2697012 4.1064863 -2.1169624
-1.240315 4.1074705 -2.1013868
-1.2117584 4.1083727 -2.0928447
-1.1826181 4.1093473 -2.0776458
-1.1545827 4.11026 -2.0659256
-1.1278627 4.1111202 -2.0559502
-1.1021423 4.1120319 -2.0363069
-1.077281 4.1128492 -2.0250483
-1.0525925 4.1135798 -2.023427
-1.0283189 4.1144257 -2.006712
-1.002439 4.1151438 -2.010792
-0.97756243 4.1158895 -2.0080557
-0.9522891 4.1166229 -2.0081701
-0.92790866 4.1173859 -2.0017252
-0.90185523 4.1181049 -2.0062814
-0.8773756 4.1188469 -2.002635
-0.85022378 4.119606 -2.0062225
-0.82440186 4.1203289 -2.0094938
-0.79684258 4.1210918 -2.0140314
-0.76950812 4.1219101 -2.0111723
-0.73871803 4.1227236 -2.0209489
-0.71693802 4.1234713 -2.0072682
-0.68159056 4.1243496 -2.024951
-0.65143394 4.1252298 -2.0245905
-0.61888671 4.1260786 -2.0361128
-0.58542371 4.1270084 -2.0413096
-0.55474067 4.1279478 -2.0356441
-0.52580976 4.1288376 -2.0297832
-0.49501443 4.1297512 -2.0275459
-0.46905327 4.1306257 -2.0131383
-0.43525696 4.1316042 -2.0136251
-0.39860749 4.132679 -2.0125687
-0.36555529 4.1336708 -2.0088432
-0.33541703 4.134634 -1.9983101
-0.30453634 4.1356144 -1.9884782
-0.26956582 4.1366844 -1.9820948
-0.23242474 4.1377935 -1.9784658
-0.18695807 4.1391096 -1.9791107
-0.16274619 4.1400013 -1.9567463
-0.13126493 4.1410322 -1.9429426
-0.10108232 4.1420374 -1.9275889
-0.057765961 4.1433506 -1.9211564
-0.021374464 4.1445303 -1.9065554
0.015954018 4.1457291 -1.8930066
0.066967487 4.1472483 -1.8886299
0.098959446 4.1483498 -1.8681996
0.14277124 4.1497288 -1.8555737
0.18513155 4.1510792 -1.8413439
0.20802593 4.1520023 -1.8105211
0.25884342 4.1535892 -1.797359
0.31657171 4.1553545 -1.7869592
0.37315941 4.1571283 -1.7714949
0.40023661 4.1581831 -1.7396421
0.44890881 4.1597805 -1.7177203
0.5275588 4.1621656 -1.7058964
0.62019062 4.164917 -1.698818
0.69776583 4.1673279 -1.6801987
0.72691154 4.1685104 -1.6401355
-2.7342472 4.0642805 -2.0740886
-2.6494074 4.0667448 -2.0742812
-2.5619078 4.0693474 -2.0671041
-2.5013933 4.0710125 -2.0782919
-2.4310269 4.0730581 -2.0783243
-2.3617487 4.0751028 -2.0745337
-2.2957926 4.0770426 -2.0718281
-2.240891 4.0786133 -2.0747366
-2.1717079 4.0807295 -2.0622256
-2.1214397 4.0821867 -2.0626616
-2.0677509 4.0837755 -2.0592592
-2.022501 4.0850439 -2.064795
-1.9712406 4.086566 -2.0610147
-1.9273432 4.0878553 -2.0593927
-1.8852451 4.089097 -2.0572467
-1.8452311 4.0902367 -2.0600154
-1.8053746 4.0914173 -2.0573666
-1.7695556 4.0924253 -2.0613027
-1.7320616 4.093545 -2.0576739
-1.6933012 4.0947056 -2.0536327
-1.656837 4.0958128 -2.0479794
-1.6213553 4.0968838 -2.0432515
-1.5892127 4.0978127 -2.0438609
-1.5568364 4.0987988 -2.038552
-1.525423 4.0997353 -2.0356488
-1.4968164 4.1005487 -2.0378885
-1.4634268 4.1015759 -2.0310335
-1.437566 4.1022911 -2.0353343
-1.4149146 4.1028242 -2.0503006
-1.4072073 4.1024523 -2.1214361
-1.3807247 4.1031485 -2.1301825
-1.3508279 4.1040058 -2.1315892
-1.3199553 4.1049814 -2.1222177
-1.2898879 4.1059179 -2.1147871
-1.2602546 4.1068525 -2.1060576
-1.2311118 4.1078615 -2.0867271
-1.2043707 4.1086502 -2.0853536
-1.1760728 4.1095133 -2.0804491
-1.1490624 4.1104221 -2.0657444
-1.1219132 4.1114311 -2.0393929
-1.0970466 4.1122303 -2.0303547
-1.0707097 4.1130829 -2.0199387
-1.046603 4.1138315 -2.0141811
-1.0215328 4.1146307 -2.0057681
-0.99718499 4.1152458 -2.0168498
-0.9713552 4.1160421 -2.0113683
-0.94538879 4.116828 -2.0077038
-0.92235518 4.1175756 -1.9982674
-0.89406729 4.118288 -2.011404
-0.87177444 4.1190453 -1.9983525
-0.84534287 4.1197681 -2.003747
-0.81763315 4.1205425 -2.0074203
-0.78970361 4.1213169 -2.0119185
-0.76304436 4.122056 -2.0161889
-0.7360146 4.1228857 -2.0110066
-0.70513153 4.1237326 -2.0169797
-0.67624784 4.124548 -2.0198228
-0.64499545 4.1253948 -2.027247
-0.61025596 4.1263218 -2.0370927
-0.58198571 4.1272154 -2.0284679
-0.5496695 4.1281338 -2.031013
-0.51919007 4.1290503 -2.0272534
-0.49000716 4.129921 -2.0246172
-0.46148324 4.1308317 -2.0149155
-0.42949557 4.131773 -2.0134478
-0.39473701 4.1327982 -2.0117295
-0.36244655 4.1337872 -2.0056627
-0.3266151 4.13486 -2.0019662
-0.30038452 4.135747 -1.9870715
-0.26202488 4.1368961 -1.9829235
-0.22460175 4.1380234 -1.9782112
-0.18747139 4.1391401 -1.9737823
-0.15604711 4.1401863 -1.9578848
-0.13953996 4.1409187 -1.9277885
-0.091285467 4.1422968 -1.9306288
-0.054521561 4.1434631 -1.918998
-0.015058279 4.1446991 -1.9083686
0.031708002 4.1461105 -1.9021261
0.068688869 4.1473207 -1.8859513
0.10052848 4.1484308 -1.8638961
0.14556456 4.149847 -1.8510547
0.18397236 4.1511259 -1.8316727
0.21065855 4.1521273 -1.8048093
0.2674737 4.1538563 -1.7954683
0.33377647 4.1558304 -1.7899218
0.35231924 4.1566734 -1.7535915
0.42506886 4.1588573 -1.7452028
0.4595933 4.1601057 -1.7160046
0.51353264 4.1618614 -1.6936018
0.62356329 4.1650629 -1.69312
0.70071697 4.1674566 -1.6751795
0.738729 4.1688719 -1.638109
-2.7361746 4.0940857 -2.0923424
-2.6328123 4.0972042 -2.0787077
-2.5550332 4.0994635 -2.0788612
-2.4931402 4.1011763 -2.0892134
-2.4068921 4.1037855 -2.0769362
-2.340909 4.1057167 -2.0752804
-2.272294 4.1077738 -2.0678754
-2.2205839 4.1092262 -2.0738266
-2.1672661 4.1107693 -2.0746448
-2.1069894 4.1125822 -2.0672927
-2.0623431 4.1138372 -2.0724039
-2.0040278 4.1155939 -2.064992
-1.9572799 4.1169577 -2.0644579
-1.9144157 4.1182222 -2.062232
-1.8643757 4.1197491 -2.0534713
-1.8324134 4.1205893 -2.0641484
-1.7919574 4.1217842 -2.0618043
-1.7552605 4.1228666 -2.0599561
-1.7193122 4.1239109 -2.0600078
-1.6830802 4.1249723 -2.059042
-1.6478808 4.1260147 -2.056632
-1.6113865 4.1271353 -2.0495479
-1.5781634 4.1280994 -2.0497594
-1.5416372 4.1292572 -2.0382926
-1.5124946 4.1300898 -2.0400088
-1.4816082 4.1310291 -2.0349784
-1.4533601 4.1318264 -2.0378475
-1.4264967 4.1325884 -2.040062
-1.4143381 4.1324997 -2.0927982
-1.393213 4.1328659 -2.122448
-1.3644159 4.1336775 -2.1254733
-1.3344707 4.1345863 -2.1208568
-1.3051808 4.135458 -2.118448
-1.2730339 4.1365137 -2.1038923
-1.2430539 4.1375284 -2.086741
-1.2155745 4.1383657 -2.0821977
-1.1863666 4.1392565 -2.0771501
-1.161325 4.1399937 -2.0760701
-1.132432 4.1409445 -2.0628181
-1.105598 4.1419106 -2.0405254
-1.0806537 4.1427631 -2.0253234
-1.0549405 4.1435452 -2.0212352
-1.03004 4.1443167 -2.0155275
-1.0051649 4.1450691 -2.011961
-0.9799068 4.1457987 -2.012496
-0.95615387 4.1465712 -2.0027761
-0.93046665 4.1472673 -2.008832
-0.90563893 4.1480246 -2.0045364
-0.88161278 4.1487341 -2.0030923
-0.85484004 4.1495352 -2.0004275
-0.82965326 4.1502724 -1.999784
-0.8012259 4.1509924 -2.0124319
-0.77420473 4.1518154 -2.00792
-0.7467742 4.1525946 -2.0101902
-0.7186408 4.1534243 -2.008631
-0.68737364 4.1542578 -2.0177453
-0.65647793 4.1551199 -2.0220075
-0.62502956 4.156004 -2.0255852
-0.58850217 4.1569576 -2.0384662
-0.56069803 4.1578407 -2.0295231
-0.53044105 4.1587334 -2.0278199
-0.50350833 4.1596107 -2.0166185
-0.47038245 4.1605806 -2.0157318
-0.44511819 4.1614313 -2.0018322
-0.41113043 4.1624298 -2.0005035
-0.37167716 4.1635609 -2.0023963
-0.34009147 4.1645346 -1.9957976
-0.31142378 4.1654673 -1.9839354
-0.27455497 4.1665745 -1.9796014
-0.23852754 4.167697 -1.9706633
-0.20500541 4.1687536 -1.9608572
-0.16003752 4.1700573 -1.9611886
-0.14183545 4.170804 -1.9352362
-0.11889863 4.171669 -1.9115558
-0.071353197 4.1730633 -1.9101322
-0.026612282 4.1744099 -1.9046175
0.014004707 4.1757002 -1.8914037
0.065892935 4.1772308 -1.8887305
0.098153353 4.1783466 -1.8675089
0.14246345 4.1797533 -1.8532395
0.18025541 4.1810131 -1.8340199
0.2176199 4.1822729 -1.813318
0.25861979 4.1836252 -1.7940338
0.32460451 4.185606 -1.7866058
0.34426212 4.1864538 -1.7535944
0.40749693 4.1884022 -1.740345
0.45821238 4.1900587 -1.7185786
0.50208187 4.1915579 -1.6918886
0.56261539 4.1935062 -1.6692734
0.66945839 4.1966505 -1.6646228
0.70478439 4.1979933 -1.6269264
-2.6835113 4.0956764 -2.0852249
-2.6024354 4.0980425 -2.0840936
-2.5239787 4.1003284 -2.0833793
-2.4517336 4.1024218 -2.0841441
-2.3817763 4.1044836 -2.0807161
-2.3153071 4.1064339 -2.0785074
-2.2521167 4.1082983 -2.0752025
-2.194273 4.1099968 -2.0731444
-2.1415186 4.1115246 -2.073827
-2.0854883 4.113184 -2.0700946
-2.032464 4.1147594 -2.0660088
-1.9882351 4.1160116 -2.0699205
-1.9390554 4.1174927 -2.0637822
-1.8963486 4.1187382 -2.063221
-1.8531929 4.1200066 -2.0616384
-1.8157718 4.121088 -2.0623126
-1.778173 4.1221771 -2.0627923
-1.7405319 4.1232672 -2.063231
-1.7046919 4.1243124 -2.0628152
-1.6681721 4.1254148 -2.0578909
-1.6346121 4.1263733 -2.0599043
-1.5973377 4.1275606 -2.0475483
-1.5640168 4.1285295 -2.0474772
-1.5315588 4.1295242 -2.041276
-1.4993806 4.1304989 -2.0366626
-1.4696338 4.1313734 -2.0354524
-1.4432952 4.1320877 -2.0415916
-1.4154775 4.1328373 -2.0485535
-1.4081566 4.1325312 -2.1104858
-1.38026 4.1332502 -2.1214767
-1.3565807 4.1338158 -2.1360865
-1.3238208 4.1348772 -2.1231256
-1.2928751 4.1358471 -2.1146526
-1.2631288 4.1368227 -2.1014385
-1.2345674 4.1377239 -2.0929461
-1.2062833 4.1385956 -2.0870018
-1.1773162 4.1394825 -2.0816803
-1.1498373 4.1403828 -2.0695045
-1.1230886 4.1413269 -2.0496349
-1.097939 4.14219 -2.0338576
-1.0710132 4.1430807 -2.0209258
-1.0466607 4.1437931 -2.0204036
-1.0228653 4.1446276 -2.0032945
-0.99808025 4.1452599 -2.0138404
-0.97178936 4.1460705 -2.0082972
-0.94846606 4.1467819 -2.0042303
-0.92153406 4.1475706 -2.003562
-0.89723849 4.1483078 -1.9998822
-0.87173772 4.149003 -2.0053205
-0.85101676 4.1497898 -1.9832964
-0.81906152 4.1505671 -2.0013437
-0.79163694 4.1512947 -2.0096159
-0.76478386 4.1520796 -2.0091
-0.73716068 4.1528635 -2.0113449
-0.70749545 4.1537304 -2.0108471
-0.67941594 4.1545362 -2.0121002
-0.64825916 4.1553841 -2.0189965
-0.61497426 4.156291 -2.0261686
-0.57851672 4.1572561 -2.0374508
-0.549963 4.1581564 -2.0289788
-0.52286053 4.1590204 -2.0199037
-0.4895947 4.1599598 -2.0232351
-0.46283507 4.1608362 -2.0113378
-0.43038225 4.1618204 -2.0065174
-0.39882445 4.1627655 -2.0032501
-0.36032391 4.1638803 -2.0037167
-0.33073592 4.1648159 -1.994628
-0.30035233 4.1658154 -1.9808006
-0.26453853 4.1668797 -1.978009
-0.22382617 4.168088 -1.9749804
-0.19656348 4.1690102 -1.9594707
-0.15432668 4.1702709 -1.9555838
-0.14027166 4.1709385 -1.924659
-0.10907125 4.1719694 -1.9097664
-0.061578512 4.1733828 -1.9058371
-0.017434359 4.174715 -1.8998945
0.025678635 4.1760445 -1.8907933
0.061141253 4.1772108 -1.8747146
0.10329866 4.1785555 -1.8603551
0.14660645 4.179925 -1.8471715
0.18513775 4.1812029 -1.8283086
0.22155046 4.1824284 -1.808346
0.2700448 4.1839857 -1.7907767
0.33564281 4.185956 -1.783083
0.35404968 4.1867876 -1.7477055
0.42638636 4.1889515 -1.7403805
0.46126413 4.1902094 -1.7112823
0.50616121 4.1917343 -1.6848831
0.62465048 4.1951599 -1.6871045
0.68175697 4.1970568 -1.6587684
0.71994638 4.1984682 -1.622781
-2.673358 4.0960026 -2.0814943
-2.5911186 4.0984077 -2.0797331
-2.5149264 4.1006231 -2.0796168
-2.443716 4.1026878 -2.0801883
-2.3731112 4.1047659 -2.0770535
-2.3144317 4.106451 -2.0795054
-2.2516034 4.1083021 -2.0764897
-2.191205 4.1100864 -2.0730858
-2.139185 4.1115875 -2.0743675
-2.0843887 4.1132164 -2.0700865
-2.0296531 4.1148291 -2.0674975
-1.9835664 4.1161699 -2.0673203
-1.9386574 4.1174936 -2.0650623
-1.8920208 4.1188917 -2.0599194
-1.8539196 4.1199818 -2.062037
-1.8141956 4.1211329 -2.0624824
-1.7778516 4.1221743 -2.0641947
-1.7372899 4.1233845 -2.0605273
-1.7047293 4.1243162 -2.062216
-1.6689403 4.1253862 -2.0586109
-1.6359327 4.1263313 -2.060348
-1.5975091 4.1275282 -2.0508037
-1.5640409 4.1285477 -2.0452671
-1.5307984 4.129549 -2.0410566
-1.5002246 4.130477 -2.036324
-1.4711025 4.1313257 -2.0359702
-1.4436586 4.1320753 -2.0417309
-1.4206352 4.1325827 -2.0610788
-1.4068472 4.1326075 -2.1059208
-1.3817799 4.1332092 -2.1210856
-1.3552885 4.1339111 -2.1292014
-1.3230567 4.1349297 -2.1194549
-1.2944634 4.1358137 -2.1130924
-1.2647753 4.1367197 -2.1080127
-1.2357521 4.1377096 -2.0905156
-1.2070081 4.138588 -2.0854199
-1.1807945 4.1393871 -2.080889
-1.1521425 4.1403189 -2.0691233
-1.12626 4.1412249 -2.0507865
-1.0990672 4.142148 -2.0348468
-1.0749316 4.1429892 -2.018245
-1.0483093 4.1437416 -2.0207257
-1.0255845 4.1445475 -2.0034771
-1.000252 4.1452179 -2.0112753
-0.97370219 4.1460123 -2.0085261
-0.95030117 4.1467228 -2.0049973
-0.92417145 4.1474857 -2.0045099
-0.90060091 4.1481724 -2.0043476
-0.87451673 4.1489191 -2.0056617
-0.8520565 4.1497078 -1.9894707
-0.82180882 4.1504545 -2.0051951
-0.7942059 4.1511831 -2.0140328
-0.76816773 4.1519985 -2.0070357
-0.73929977 4.1527643 -2.015811
-0.71091223 4.153595 -2.0150857
-0.68167639 4.1544371 -2.0159891
-0.65030384 4.1552935 -2.0226099
-0.62107491 4.1561384 -2.0232136
-0.58456492 4.1570873 -2.0365353
-0.55640101 4.1579809 -2.0275629
-0.52331233 4.158905 -2.0321691
-0.49305248 4.1598444 -2.0249839
-0.46452188 4.160759 -2.0147519
-0.43502522 4.1616602 -2.0095768
-0.40155721 4.1626749 -2.0045402
-0.36457753 4.1637383 -2.0058961
-0.33046126 4.1647835 -1.9994626
-0.30440855 4.1656618 -1.9850428
-0.26665998 4.1668024 -1.979811
-0.22992253 4.1679096 -1.9750597
-0.19943571 4.1688957 -1.9631865
-0.1617136 4.1700535 -1.9558356
-0.13464928 4.1709967 -1.9371762
-0.11313248 4.171833 -1.9119577
-0.068950653 4.173152 -1.9077909
-0.020441055 4.1745787 -1.9058292
0.016718388 4.1757946 -1.8896141
0.06374979 4.177228 -1.8816299
0.099832296 4.1784182 -1.8647649
0.14979863 4.179945 -1.8557928
0.18834877 4.1812372 -1.8353219
0.21490049 4.1822329 -1.8086872
0.25990295 4.1836815 -1.7918234
0.3202033 4.1855106 -1.7826753
0.37563944 4.1872587 -1.766382
0.39474583 4.1881132 -1.7305796
0.45009089 4.1898756 -1.7122991
0.5285058 4.1922522 -1.7006505
0.63170052 4.1952868 -1.6964359
0.68984652 4.1971979 -1.6700356
0.72804165 4.1986113 -1.6338568
-2.7389109 4.0940189 -2.0909216
-2.6339011 4.0971823 -2.0775952
-2.5625761 4.0992031 -2.083775
-2.4950118 4.1011353 -2.0876007
-2.4238734 4.1032114 -2.0865433
-2.3487475 4.1054726 -2.0772514
-2.2948709 4.1069765 -2.0846274
-2.2290573 4.108942 -2.0783243
-2.169611 4.1107063 -2.0740545
-2.1147938 4.1123314 -2.0702031
-2.0595834 4.1139669 -2.0664716
-2.0108781 4.1153727 -2.0676579
-1.9721513 4.1164379 -2.0748811
-1.9171594 4.1181574 -2.0604119
-1.8780541 4.1192732 -2.0629237
-1.8393316 4.1203823 -2.064785
-1.8029997 4.1214294 -2.0658474
-1.7610958 4.1226788 -2.0621758
-1.7257159 4.1237011 -2.0628724
-1.6920686 4.1246624 -2.0648737
-1.6535707 4.1258583 -2.0555773
-1.6195939 4.1268616 -2.0538187
-1.5863047 4.1278601 -2.0500772
-1.55094 4.1289568 -2.0418415
-1.5206938 4.1298389 -2.0414987
-1.4898562 4.1307716 -2.0371697
-1.4583375 4.1317205 -2.0331631
-1.4318802 4.1324377 -2.0393593
-1.411706 4.1328192 -2.0638318
-1.4008164 4.1326618 -2.1203613
-1.3710666 4.1335106 -2.1222823
-1.3450613 4.1341934 -2.1310506
-1.3138936 4.1351824 -2.1210713
-1.2834651 4.1361828 -2.1071897
-1.2532299 4.1370993 -2.1026959
-1.2238901 4.1381044 -2.0844808
-1.1959758 4.1389875 -2.075995
-1.1689634 4.1398363 -2.0682726
-1.1437347 4.1405592 -2.0695786
-1.1154282 4.1415386 -2.0508397
-1.0892622 4.1424856 -2.0286243
-1.0646164 4.1432571 -2.0220327
-1.0405769 4.1439714 -2.020118
-1.0155902 4.1448202 -2.0055251
-0.99061394 4.1455021 -2.010859
-0.96522641 4.1462488 -2.0097601
-0.94079924 4.1469803 -2.0071454
-0.91564727 4.1478081 -1.9956832
-0.88965249 4.1485167 -2.0011771
-0.86394548 4.1492271 -2.0056217
-0.84342456 4.1499748 -1.9875889
-0.81140828 4.1507616 -2.0046694
-0.78574467 4.1515341 -2.0015628
-0.75625443 4.1522961 -2.0128732
-0.73059058 4.1530743 -2.0090063
-0.70040917 4.1538916 -2.0161579
-0.66541314 4.1548033 -2.0287678
-0.63744569 4.1556368 -2.0262527
-0.60389614 4.1565428 -2.0344982
-0.57488394 4.1574469 -2.0272448
-0.54499173 4.1583185 -2.0269012
-0.51295972 4.1592808 -2.023212
-0.48321009 4.160182 -2.0188506
-0.46096468 4.1609774 -2.0010068
-0.4218812 4.1620588 -2.0074704
-0.38674855 4.1631021 -2.0048721
-0.35147119 4.1641321 -2.0043409
-0.32197809 4.1650877 -1.992584
-0.29129648 4.1660805 -1.9805055
-0.25144553 4.1672354 -1.9809473
-0.22073793 4.1682377 -1.967824
-0.18250585 4.1694031 -1.9613173
-0.14545631 4.1705399 -1.9541748
-0.13706303 4.1711016 -1.9162593
-0.090596199 4.1724653 -1.9147449
-0.047611952 4.17377 -1.908052
-0.011179686 4.1749411 -1.8946822
0.045333862 4.1765785 -1.8953199
0.081408262 4.1777678 -1.8785093
0.11406159 4.1788874 -1.8581545
0.15828609 4.1802931 -1.8437033
0.19677496 4.1815615 -1.8258965
0.22805643 4.1826878 -1.8000193
0.26038408 4.1838417 -1.7744396
0.33372593 4.1859808 -1.7734938
0.35963583 4.1870089 -1.7405987
0.44795799 4.1895771 -1.7404866
0.47474337 4.1906519 -1.7050762
0.55354738 4.1930408 -1.6934044
0.64808226 4.195859 -1.6848969
0.68547058 4.1972322 -1.6507955
0.76661634 4.1997719 -1.6290777
-2.7362106 4.0940742 -2.0936537
-2.6219282 4.097558 -2.0742383
-2.5522709 4.0995302 -2.0805111
-2.4857397 4.1014128 -2.0865335
-2.4131732 4.1035452 -2.083859
-2.3513277 4.1053295 -2.0853899
-2.2932131 4.1070127 -2.0860956
-2.2276368 4.1089802 -2.0787382
-2.1635418 4.1109085 -2.0709486
-2.111084 4.1124325 -2.0709887
-2.0634294 4.1138048 -2.0724318
-2.0092287 4.1154175 -2.0680959
-1.9675201 4.1165953 -2.0722117
-1.9235494 4.1178837 -2.0709584
-1.8797326 4.1191854 -2.0675979
-1.8360163 4.1205082 -2.0613093
-1.7982173 4.121603 -2.0618341
-1.7637932 4.12257 -2.0657959
-1.7253306 4.1237173 -2.0622325
-1.6883688 4.1248236 -2.058357
-1.6560767 4.1257229 -2.0630236
-1.6175613 4.1269417 -2.0512061
-1.5854862 4.1278734 -2.0512967
-1.5493248 4.1290026 -2.0420101
-1.5201294 4.1298532 -2.0417342
-1.486721 4.1308813 -2.0348988
-1.4588141 4.1316881 -2.0353861
-1.4335105 4.1323729 -2.0414517
-1.4111938 4.1328659 -2.0600677
-1.4002666 4.1326551 -2.1231081
-1.3722844 4.1334667 -2.1232634
-1.3448963 4.1342039 -2.1303163
-1.3136086 4.1352158 -2.1180732
-1.2831142 4.1361351 -2.1141028
-1.2539105 4.1371098 -2.0990622
-1.2248638 4.1380711 -2.0851159
-1.1970234 4.1388922 -2.0836842
-1.1695273 4.1397896 -2.0719984
-1.1431673 4.1405735 -2.0698543
-1.1162534 4.1415253 -2.0495703
-1.0914927 4.1424246 -2.028131
-1.0646493 4.1432667 -2.0207832
-1.0408208 4.1439123 -2.0263863
-1.0177684 4.1447239 -2.0094521
-0.99146056 4.1454782 -2.0106905
-0.96592879 4.1462383 -2.0085878
-0.94084001 4.147028 -2.0013404
-0.91695261 4.1477652 -1.9961677
-0.89041686 4.1484909 -2.0015867
-0.866045 4.1492329 -1.9976399
-0.84249306 4.1499519 -1.9935417
-0.81378388 4.1507025 -2.0035198
-0.78555179 4.1514521 -2.0119612
-0.75786519 4.1522665 -2.0107737
-0.73124266 4.1530485 -2.0097733
-0.70212722 4.1538725 -2.0125306
-0.67073512 4.1547232 -2.019881
-0.64033031 4.15557 -2.0242457
-0.6068337 4.1564856 -2.0311823
-0.57777953 4.157341 -2.0298195
-0.54590201 4.1582947 -2.0265343
-0.51545715 4.1591959 -2.0246263
-0.48255801 4.1601601 -2.0237055
-0.46031857 4.1609631 -2.0050316
-0.42420816 4.1619864 -2.0081301
-0.38796639 4.1630573 -2.0060337
-0.35355163 4.1640663 -2.0049443
-0.32056189 4.1650906 -1.997179
-0.29605722 4.1659641 -1.9779441
-0.25721407 4.1670923 -1.9779961
-0.22008872 4.16821 -1.9733012
-0.17823124 4.1694546 -1.9700141
-0.15096736 4.1703959 -1.952255
-0.13162112 4.171195 -1.9239531
-0.092020273 4.1724129 -1.9159408
-0.044674158 4.1738014 -1.914588
-0.012788773 4.1748686 -1.897809
0.028321505 4.1761503 -1.8874378
0.079030991 4.1776714 -1.8817036
0.10166144 4.1785755 -1.8523152
0.15164876 4.1800966 -1.8441739
0.18802595 4.1813164 -1.8247435
0.22503042 4.1825657 -1.8040738
0.26545 4.1839151 -1.7832091
0.33137035 4.1858978 -1.7752304
0.37193394 4.1872597 -1.7533576
0.42179251 4.1888876 -1.7320564
0.46307373 4.1903105 -1.7054641
0.55167294 4.1929483 -1.6978889
0.63584852 4.1954889 -1.6866462
0.69403315 4.1974087 -1.6594193
0.73247576 4.1988297 -1.6231668
-2.7028923 4.125165 -2.0807877
-2.6094503 4.127923 -2.0756691
-2.5316005 4.1301851 -2.0758505
-2.4588599 4.1322975 -2.0760524
-2.3879123 4.1343908 -2.0722489
-2.3226085 4.1363058 -2.0702302
-2.2652886 4.1379414 -2.0738473
-2.1958504 4.140069 -2.0607595
-2.143714 4.1415777 -2.061518
-2.0985837 4.1428432 -2.0670671
-2.0417366 4.1445599 -2.0594125
-1.9951842 4.1458664 -2.0650151
-1.9509807 4.1471529 -2.0647459
-1.9063286 4.1484613 -2.0634251
-1.8615382 4.1498165 -2.0570688
-1.824666 4.1508379 -2.0630989
-1.7884078 4.1518936 -2.0628827
-1.7471397 4.1531448 -2.0566964
-1.7115705 4.15415 -2.0601292
-1.6744854 4.1552696 -2.0551403
-1.6428251 4.1561813 -2.0560517
-1.6066251 4.1572676 -2.0520258
-1.5699031 4.158411 -2.0429549
-1.5394101 4.1593227 -2.039885
-1.5074561 4.1602964 -2.0345674
-1.4764438 4.1612263 -2.0310941
-1.4481382 4.1620083 -2.0359924
-1.4282517 4.1623955 -2.0586817
-1.4077721 4.1627512 -2.0874176
-1.3899331 4.1629705 -2.1230333
-1.3625271 4.1637278 -2.1276746
-1.332428 4.1646233 -2.1253152
-1.3001575 4.1656408 -2.1157475
-1.2694023 4.1667213 -2.0934851
-1.2419896 4.1675262 -2.0925646
-1.2118945 4.1685143 -2.0789416
-1.1860991 4.169302 -2.074491
-1.1576319 4.1702156 -2.0640907
-1.1300609 4.1711092 -2.0531831
-1.1038485 4.1720352 -2.0335574
-1.0798669 4.1728058 -2.024812
-1.0543013 4.1736097 -2.0174267
-1.0296588 4.1743574 -2.0137062
-1.0038643 4.1751232 -2.0117764
-0.98033977 4.175808 -2.0116956
-0.95447612 4.1766119 -2.0054531
-0.92994452 4.1773243 -2.0055664
-0.90485597 4.1781111 -1.9986281
-0.87819862 4.1788454 -2.003454
-0.85862803 4.1795998 -1.9813254
-0.82793808 4.1803083 -2.0032301
-0.79567194 4.181119 -2.0183706
-0.77132726 4.1818848 -2.0114367
-0.74387503 4.1826658 -2.013376
-0.71448779 4.1835222 -2.0131452
-0.68828249 4.1843042 -2.0107353
-0.65307784 4.1852055 -2.0253203
-0.6220088 4.186101 -2.0262473
-0.58558393 4.1870375 -2.0407615
-0.55697894 4.1879387 -2.0324581
-0.52932644 4.1887932 -2.0264099
-0.49816489 4.1897268 -2.023083
-0.4676466 4.190649 -2.0187519
-0.43644524 4.1916227 -2.0107822
-0.40330362 4.1925936 -2.0099456
-0.36649799 4.1936789 -2.0081449
-0.33422709 4.1946764 -2.0009782
-0.30967879 4.1955528 -1.9814529
-0.26793075 4.1967239 -1.9866104
-0.23999381 4.1976681 -1.9707727
-0.20169234 4.1988382 -1.9640443
-0.1604712 4.2000494 -1.9624097
-0.14820194 4.2007103 -1.9260859
-0.11572504 4.201767 -1.9125953
-0.067366838 4.2031679 -1.913193
-0.021943092 4.2045479 -1.9060514
0.02405858 4.2059317 -1.9004076
0.061408758 4.2071533 -1.8842363
0.094238997 4.2082882 -1.8625929
0.1477983 4.2098894 -1.8572562
0.18090105 4.2110491 -1.8337755
0.21891832 4.2123327 -1.8124378
0.26616287 4.2138329 -1.797214
0.33160067 4.2157898 -1.7906923
0.34458637 4.2164993 -1.7509882
0.43143034 4.2190304 -1.7501769
0.4596386 4.22013 -1.7168136
0.51978445 4.222044 -1.6970141
0.63193655 4.2253075 -1.696589
0.69951582 4.227459 -1.6742158
0.73756218 4.2288704 -1.6376953
-2.699039 4.1252403 -2.0852003
-2.598177 4.1282663 -2.0738807
-2.5214505 4.1305027 -2.0731604
-2.4512119 4.1325397 -2.0736566
-2.3791218 4.1346531 -2.0715044
-2.3255708 4.1361589 -2.0774984
-2.2526267 4.1383677 -2.0669718
-2.1921487 4.1401539 -2.0635457
-2.1445389 4.1414843 -2.0698617
-2.0911036 4.143074 -2.0655453
-2.0356019 4.1447029 -2.0635772
-1.9879637 4.1460934 -2.0629599
-1.9476197 4.1472359 -2.0665007
-1.9011153 4.1486349 -2.060811
-1.8583757 4.1498947 -2.0587585
-1.8200917 4.1509905 -2.0607913
-1.7803085 4.152174 -2.0574441
-1.7464037 4.1531277 -2.0612793
-1.7097187 4.1541967 -2.0609322
-1.6705482 4.1554041 -2.0527489
-1.6380579 4.156332 -2.0545998
-1.6048031 4.1573153 -2.0526495
-1.5717685 4.1583042 -2.0492544
-1.5369568 4.1593895 -2.0404027
-1.5047328 4.1603365 -2.0391691
-1.4744129 4.161252 -2.0350533
-1.4475856 4.1620073 -2.038029
-1.4258943 4.1624517 -2.0602121
-1.4124305 4.1625004 -2.101161
-1.3886499 4.1630077 -2.1231203
-1.3616681 4.1637497 -2.1281428
-1.330215 4.1647243 -2.1209369
-1.3009503 4.165638 -2.1133072
